ply
format ascii 1.0
element vertex 1789
property double x
property double y
property double z
end_header
517356 2.73706e+06 2111.62
517358 2.73708e+06 2118.02
517360 2.7371e+06 2139.99
517363 2.73713e+06 2155.58
517366 2.73716e+06 2161.39
517367 2.73717e+06 2171.02
517370 2.73721e+06 2188.19
517371 2.73722e+06 2188.11
517376 2.73726e+06 2188.89
517377 2.73728e+06 2188.5
517379 2.7373e+06 2188.06
517383 2.73733e+06 2201.47
517383 2.73734e+06 2198.79
517386 2.73737e+06 2210.78
517389 2.7374e+06 2218.86
517392 2.73743e+06 2220.11
517394 2.73745e+06 2210.74
517395 2.73747e+06 2234.58
517395 2.73747e+06 2234.71
514198 2.73747e+06 2147.54
514200 2.73749e+06 2142.02
514201 2.7375e+06 2137.5
514205 2.73754e+06 2139.17
514206 2.73755e+06 2138.61
514209 2.73759e+06 2129.03
514210 2.7376e+06 2130.87
514212 2.73762e+06 2127.14
514215 2.73765e+06 2128.73
514218 2.73768e+06 2130.94
514218 2.73768e+06 2131.32
514218 2.73768e+06 2130.71
514219 2.73769e+06 2131.17
514219 2.73769e+06 2130.6
514219 2.73769e+06 2130.24
514221 2.73771e+06 2127.85
514222 2.73773e+06 2127.12
514226 2.73776e+06 2109.22
514227 2.73778e+06 2108.3
514230 2.7378e+06 2103.14
514232 2.73782e+06 2101.05
514234 2.73785e+06 2093.41
514237 2.73788e+06 2088.23
514238 2.73789e+06 2091.35
514248 2.73799e+06 2050.04
514255 2.73806e+06 2049.92
514258 2.73809e+06 2041.62
514259 2.7381e+06 2040.61
514262 2.73813e+06 2045.92
514264 2.73815e+06 2050.28
514265 2.73817e+06 2057.37
514274 2.73825e+06 2078.87
514275 2.73827e+06 2077.87
517397 2.73749e+06 2240.28
517404 2.73756e+06 2248.72
517405 2.73757e+06 2248.56
517406 2.73759e+06 2251.43
517409 2.73761e+06 2260.08
517412 2.73764e+06 2269.62
517414 2.73766e+06 2270.59
517417 2.73769e+06 2278.53
517419 2.73771e+06 2278.14
517423 2.73775e+06 2289.58
517423 2.73775e+06 2290.34
517424 2.73776e+06 2292.66
517424 2.73776e+06 2292.8
517424 2.73776e+06 2292.36
517426 2.73778e+06 2289.33
517429 2.73781e+06 2308.63
517431 2.73783e+06 2320.92
517434 2.73786e+06 2328.37
517436 2.73788e+06 2338.02
517438 2.73791e+06 2338.03
517441 2.73793e+06 2348.58
517442 2.73795e+06 2353.24
517442 2.73795e+06 2352.93
517442 2.73795e+06 2352.63
517444 2.73797e+06 2353.03
517446 2.73799e+06 2350.99
517449 2.73801e+06 2348.01
517449 2.73802e+06 2349.39
517452 2.73805e+06 2349.76
517454 2.73807e+06 2351.11
517457 2.7381e+06 2352.21
517458 2.73812e+06 2359.11
517461 2.73815e+06 2358.54
517463 2.73817e+06 2365.27
517463 2.73817e+06 2365.47
517463 2.73817e+06 2365.73
517464 2.73819e+06 2365.31
517464 2.73819e+06 2364.82
517464 2.73819e+06 2364.13
517470 2.73825e+06 2369.35
517472 2.73826e+06 2369.96
514275 2.73827e+06 2083.19
514278 2.7383e+06 2088.48
514282 2.73834e+06 2087.87
514283 2.73836e+06 2098.8
514283 2.73836e+06 2097.8
514285 2.73837e+06 2097.32
514287 2.73839e+06 2102.35
514290 2.73843e+06 2108.96
514290 2.73843e+06 2109.19
514290 2.73843e+06 2109.07
514290 2.73843e+06 2109.42
514292 2.73845e+06 2108.73
514292 2.73845e+06 2109.29
514292 2.73845e+06 2109.35
514295 2.73847e+06 2112.94
514295 2.73847e+06 2112.93
514295 2.73847e+06 2112.65
514295 2.73847e+06 2113.02
514295 2.73847e+06 2113.07
514299 2.73851e+06 2117.71
514298 2.73851e+06 2117.57
514310 2.73862e+06 2127.35
514310 2.73863e+06 2127.62
514315 2.73867e+06 2127.6
514315 2.73868e+06 2129.08
514319 2.73872e+06 2130.12
514319 2.73872e+06 2130.64
514319 2.73872e+06 2131.05
514319 2.73872e+06 2130.84
514320 2.73873e+06 2132.92
514320 2.73873e+06 2132.26
514320 2.73873e+06 2132.4
514320 2.73873e+06 2132.43
514320 2.73873e+06 2132.29
514320 2.73873e+06 2132.37
514320 2.73873e+06 2133.27
514322 2.73875e+06 2134.05
514322 2.73875e+06 2133.83
514322 2.73875e+06 2133.03
514322 2.73875e+06 2132.53
514322 2.73875e+06 2133.09
514322 2.73875e+06 2132.93
514322 2.73875e+06 2132.83
514324 2.73877e+06 2132.64
514325 2.73878e+06 2133.97
514325 2.73878e+06 2134.28
514325 2.73878e+06 2133.85
514325 2.73878e+06 2133.48
514327 2.7388e+06 2129
514330 2.73883e+06 2137.37
514333 2.73886e+06 2137.16
514337 2.73889e+06 2137.86
514337 2.7389e+06 2137.43
514340 2.73893e+06 2137.59
514342 2.73895e+06 2140.95
514345 2.73898e+06 2140.17
514345 2.73898e+06 2140.43
514345 2.73898e+06 2139.76
514345 2.73898e+06 2139.93
514346 2.73899e+06 2139.21
514346 2.73899e+06 2139.19
514346 2.73899e+06 2138.27
514347 2.739e+06 2138.79
514347 2.739e+06 2139.04
514350 2.73903e+06 2130.44
514352 2.73905e+06 2127.4
517473 2.73828e+06 2372.16
517475 2.7383e+06 2378.26
517478 2.73833e+06 2382.01
517481 2.73835e+06 2381.39
517483 2.73837e+06 2388.29
517487 2.73841e+06 2392.48
517488 2.73842e+06 2392.93
517494 2.73848e+06 2400.53
517494 2.73848e+06 2400.32
517494 2.73848e+06 2400.48
517494 2.73848e+06 2399.41
517493 2.73848e+06 2399.14
517495 2.7385e+06 2399.35
517498 2.73852e+06 2399.84
517499 2.73854e+06 2403.76
517502 2.73857e+06 2412.5
517506 2.7386e+06 2414.55
517508 2.73862e+06 2409.83
517514 2.73868e+06 2392.2
517515 2.7387e+06 2390.9
517516 2.73871e+06 2392.11
517516 2.73871e+06 2393.11
517518 2.73872e+06 2393.67
517520 2.73875e+06 2388.43
517522 2.73877e+06 2378.89
517523 2.73878e+06 2379.58
517534 2.73889e+06 2428.71
517534 2.7389e+06 2429.21
517537 2.73893e+06 2437.95
517539 2.73895e+06 2438.8
517541 2.73897e+06 2443.82
517542 2.73898e+06 2449.02
517545 2.73901e+06 2449.54
517547 2.73903e+06 2457.92
517548 2.73905e+06 2459.7
514354 2.73907e+06 2121.77
514354 2.73908e+06 2121.59
514357 2.73911e+06 2119.89
514359 2.73913e+06 2111.81
514362 2.73916e+06 2107.69
514365 2.73919e+06 2105.15
514367 2.73921e+06 2099.71
514368 2.73922e+06 2097.49
514374 2.73928e+06 2080.38
514374 2.73929e+06 2077.35
514376 2.7393e+06 2077.39
514376 2.7393e+06 2078.19
514378 2.73933e+06 2072.53
514380 2.73935e+06 2070.44
514384 2.73939e+06 2067.96
514388 2.73943e+06 2051.07
514389 2.73945e+06 2054.74
514391 2.73947e+06 2047.24
514394 2.7395e+06 2038.44
514395 2.73951e+06 2028.55
514396 2.73953e+06 2030.64
514399 2.73955e+06 2031.24
514399 2.73955e+06 2030.31
514399 2.73955e+06 2030.93
514399 2.73955e+06 2030.91
514400 2.73957e+06 2029.06
514400 2.73957e+06 2028.1
514400 2.73957e+06 2028.51
514400 2.73957e+06 2027.31
514401 2.73958e+06 2027.66
514404 2.73961e+06 2027.16
514408 2.73964e+06 2030.17
514409 2.73965e+06 2027.91
514412 2.73969e+06 2021.65
514416 2.73972e+06 2019.51
514417 2.73974e+06 2017.57
514417 2.73974e+06 2018.09
514417 2.73974e+06 2017.9
514417 2.73974e+06 2017.47
514419 2.73976e+06 2014.26
514419 2.73976e+06 2014.43
514419 2.73976e+06 2014.58
514419 2.73976e+06 2014.71
514419 2.73976e+06 2014.17
514419 2.73976e+06 2014.45
514419 2.73976e+06 2014.4
514419 2.73976e+06 2014.44
514419 2.73976e+06 2014.42
514422 2.73979e+06 2009.8
514424 2.73981e+06 2002.67
514427 2.73984e+06 1998.39
517553 2.73909e+06 2460.92
517556 2.73912e+06 2459.18
517558 2.73914e+06 2460.34
517558 2.73915e+06 2460.14
517560 2.73917e+06 2470.32
517567 2.73924e+06 2449.91
517569 2.73926e+06 2440.06
517569 2.73926e+06 2439.47
517569 2.73926e+06 2440.98
517571 2.73928e+06 2439.94
517571 2.73928e+06 2440.75
517571 2.73928e+06 2440.5
517571 2.73928e+06 2440.57
517574 2.73931e+06 2431.77
517576 2.73933e+06 2428.62
517579 2.73936e+06 2419.66
517581 2.73938e+06 2415.08
517586 2.73943e+06 2388.15
517587 2.73944e+06 2378.78
517590 2.73947e+06 2378.26
517594 2.73952e+06 2372.53
517603 2.7396e+06 2310.85
517605 2.73962e+06 2308.96
517606 2.73964e+06 2300.19
517609 2.73967e+06 2290.48
517611 2.73969e+06 2280.04
517614 2.73972e+06 2269.55
517616 2.73974e+06 2264.64
517618 2.73976e+06 2255.47
517619 2.73978e+06 2253.32
517619 2.73978e+06 2253.89
517621 2.73979e+06 2252.84
517621 2.73979e+06 2252.54
517622 2.73981e+06 2249.91
517626 2.73984e+06 2243.43
517626 2.73985e+06 2243.46
514432 2.73989e+06 2009.42
514433 2.73991e+06 2008.76
514434 2.73992e+06 2012.11
514439 2.73996e+06 2023.34
514441 2.73998e+06 2027.28
514443 2.74001e+06 2027.83
514445 2.74002e+06 2027.24
514447 2.74005e+06 2028.63
514450 2.74007e+06 2021.23
514452 2.74009e+06 2021.44
514452 2.74009e+06 2022.08
514454 2.74011e+06 2022.8
514453 2.74011e+06 2018.79
514466 2.74024e+06 2017.29
514468 2.74026e+06 2018.23
514468 2.74026e+06 2017.72
514470 2.74028e+06 2029.14
514474 2.74032e+06 2039.12
514475 2.74033e+06 2038.22
514477 2.74035e+06 2039.65
514477 2.74035e+06 2040.21
514478 2.74036e+06 2041.24
514478 2.74036e+06 2040.65
514478 2.74036e+06 2039.98
514478 2.74036e+06 2039.92
514480 2.74038e+06 2037.53
514480 2.74038e+06 2038.27
514484 2.74042e+06 2033.71
514486 2.74044e+06 2030.77
514489 2.74048e+06 2027.32
514492 2.74051e+06 2025.35
514495 2.74054e+06 2021.53
514496 2.74056e+06 2018
514498 2.74058e+06 2019.03
514500 2.7406e+06 2009.14
514502 2.74061e+06 2009.45
514503 2.74063e+06 2008.58
514506 2.74066e+06 2001.47
514506 2.74066e+06 2001.51
514506 2.74066e+06 2001.34
514506 2.74066e+06 2000.86
514507 2.74067e+06 2000.48
514507 2.74067e+06 2001.23
514507 2.74067e+06 2000.68
514507 2.74067e+06 2001.48
517633 2.73992e+06 2228.96
517635 2.73994e+06 2230.83
517638 2.73997e+06 2244.58
517644 2.74002e+06 2230.5
517646 2.74005e+06 2198.34
517647 2.74006e+06 2192.99
517650 2.74008e+06 2198.23
517652 2.74011e+06 2199.26
517654 2.74013e+06 2203.96
517654 2.74013e+06 2203.88
517654 2.74013e+06 2203.64
517654 2.74013e+06 2203.73
517654 2.74013e+06 2204.25
517656 2.74014e+06 2215.02
517659 2.74017e+06 2206.01
517660 2.74018e+06 2209.54
517663 2.74022e+06 2209.09
517665 2.74024e+06 2199.24
517666 2.74025e+06 2189.77
517667 2.74027e+06 2198.12
517670 2.7403e+06 2200.17
517673 2.74033e+06 2202.4
517676 2.74036e+06 2198.47
517676 2.74037e+06 2205.87
517676 2.74037e+06 2205.69
517676 2.74037e+06 2205.62
517676 2.74037e+06 2205.65
517678 2.74039e+06 2208.63
517678 2.74039e+06 2208.17
517680 2.7404e+06 2210.4
517680 2.7404e+06 2210.49
517680 2.7404e+06 2210.09
517680 2.7404e+06 2210.43
517681 2.74042e+06 2212.47
517681 2.74042e+06 2211.55
517681 2.74042e+06 2211.75
517683 2.74044e+06 2228.38
517688 2.74048e+06 2279
517688 2.74049e+06 2279.2
517690 2.74051e+06 2289.07
517693 2.74054e+06 2318.96
517698 2.74059e+06 2389.73
517701 2.74062e+06 2390.04
517702 2.74063e+06 2389.24
517704 2.74065e+06 2392.77
517705 2.74066e+06 2404.26
517705 2.74066e+06 2404.65
514507 2.74067e+06 2000.48
514508 2.74068e+06 2001.35
514513 2.74072e+06 2007.56
514516 2.74076e+06 1998.85
514517 2.74077e+06 1999
514520 2.7408e+06 2018.82
514523 2.74083e+06 2013.09
514526 2.74086e+06 2014.91
514527 2.74087e+06 2011.82
514531 2.74091e+06 2005.13
514535 2.74096e+06 1979.81
514535 2.74096e+06 1979.45
514535 2.74096e+06 1979.42
514536 2.74097e+06 1977.98
514536 2.74097e+06 1977.51
514537 2.74099e+06 1977.58
514540 2.74101e+06 1981.21
514543 2.74105e+06 1988.57
514547 2.74108e+06 1997.31
514547 2.74109e+06 1997.68
514549 2.74111e+06 2008.56
514549 2.74111e+06 2007.7
514551 2.74113e+06 2007.42
514553 2.74114e+06 2008.48
514553 2.74114e+06 2008.56
514555 2.74116e+06 2008.86
514556 2.74118e+06 2010.69
514564 2.74126e+06 2017.3
514567 2.74129e+06 2017.98
514569 2.7413e+06 2019.51
514572 2.74134e+06 2018.04
514573 2.74135e+06 2019.73
514576 2.74138e+06 2019.16
514576 2.74138e+06 2019.23
514576 2.74138e+06 2019.93
514576 2.74138e+06 2018.84
514577 2.74139e+06 2019.24
514577 2.74139e+06 2019.59
514577 2.74139e+06 2019.21
514577 2.74139e+06 2019.93
514577 2.74139e+06 2019.63
514579 2.74141e+06 2018.29
514579 2.74141e+06 2017.95
514579 2.74141e+06 2018.88
514582 2.74144e+06 2015.12
514584 2.74146e+06 2011.72
514586 2.74147e+06 2013.95
517707 2.74068e+06 2402.81
517707 2.74068e+06 2402.46
517708 2.74069e+06 2408.49
517708 2.74069e+06 2408.19
517709 2.74071e+06 2418.04
517712 2.74074e+06 2431.16
517714 2.74076e+06 2431.03
517716 2.74078e+06 2434.73
517721 2.74082e+06 2435.22
517723 2.74085e+06 2430.89
517725 2.74086e+06 2431.24
517728 2.74089e+06 2432.63
517728 2.7409e+06 2435.67
517728 2.7409e+06 2435.93
517730 2.74092e+06 2430.38
517732 2.74094e+06 2422.71
517735 2.74097e+06 2419.51
517736 2.74098e+06 2418.37
517738 2.74101e+06 2410.53
517741 2.74103e+06 2409.87
517744 2.74106e+06 2388.29
517746 2.74109e+06 2378.73
517749 2.74111e+06 2369.21
517751 2.74113e+06 2349.97
517752 2.74115e+06 2339.46
517754 2.74116e+06 2335.09
517762 2.74125e+06 2295.36
517765 2.74128e+06 2290.04
517767 2.7413e+06 2282.19
517768 2.74132e+06 2271.69
517778 2.74142e+06 2228.01
517780 2.74143e+06 2228.13
517784 2.74147e+06 2223.31
514588 2.7415e+06 2013.63
514591 2.74153e+06 2009.12
514592 2.74154e+06 2009.86
514594 2.74157e+06 2007.44
514602 2.74165e+06 1978.55
514604 2.74167e+06 1977.5
514605 2.74169e+06 1971.74
514605 2.74169e+06 1972.33
514605 2.74169e+06 1971.89
514605 2.74169e+06 1972.28
514607 2.74171e+06 1965.08
514607 2.74171e+06 1965.16
514607 2.74171e+06 1965.28
514609 2.74172e+06 1965.11
514609 2.74172e+06 1964.17
514610 2.74174e+06 1957.32
514613 2.74177e+06 1950.72
514614 2.74178e+06 1950.78
514617 2.74181e+06 1952.93
514619 2.74182e+06 1950.85
514623 2.74186e+06 1949.15
514623 2.74186e+06 1949.09
514623 2.74186e+06 1949.64
514624 2.74188e+06 1949.54
514624 2.74188e+06 1949.11
514624 2.74188e+06 1949.75
514624 2.74188e+06 1949.72
514624 2.74188e+06 1949.46
514626 2.7419e+06 1949.57
514626 2.7419e+06 1949.54
514626 2.7419e+06 1948.97
514626 2.7419e+06 1949.59
514630 2.74193e+06 1942.53
514631 2.74195e+06 1942.15
514632 2.74196e+06 1945.92
514632 2.74196e+06 1945.99
514634 2.74198e+06 1947.64
514634 2.74198e+06 1947.94
514634 2.74198e+06 1947.72
514634 2.74198e+06 1948.27
514636 2.742e+06 1947.11
514636 2.742e+06 1948.1
514639 2.74203e+06 1947.15
514640 2.74204e+06 1947.13
514642 2.74207e+06 1947.31
514644 2.74209e+06 1949.58
514649 2.74213e+06 1950.95
514649 2.74213e+06 1951.54
514649 2.74213e+06 1951.62
514649 2.74214e+06 1951.29
514649 2.74214e+06 1951.56
514651 2.74216e+06 1952.89
514654 2.74218e+06 1957.13
514656 2.7422e+06 1957.72
514656 2.7422e+06 1958.09
514656 2.74221e+06 1958.25
514656 2.74221e+06 1958.09
514659 2.74224e+06 1957.48
514661 2.74226e+06 1962.43
514661 2.74226e+06 1963.08
514661 2.74226e+06 1962.64
514661 2.74226e+06 1962.49
514661 2.74226e+06 1962.09
517790 2.74153e+06 2204.23
517790 2.74154e+06 2198.06
517794 2.74158e+06 2188.69
517796 2.7416e+06 2179.95
517805 2.74169e+06 2138.37
517808 2.74172e+06 2124.33
517810 2.74174e+06 2113.03
517810 2.74174e+06 2112.08
517810 2.74174e+06 2113.43
517810 2.74175e+06 2113.54
517810 2.74175e+06 2114.39
517810 2.74175e+06 2114.07
517812 2.74176e+06 2111.66
517813 2.74178e+06 2118.18
517815 2.7418e+06 2119.24
517818 2.74183e+06 2122.09
517821 2.74186e+06 2128
517822 2.74187e+06 2128.46
517826 2.74191e+06 2128.2
517829 2.74194e+06 2110.53
517831 2.74196e+06 2109.12
517831 2.74196e+06 2108.94
517833 2.74198e+06 2097.97
517834 2.74199e+06 2090.88
517836 2.74201e+06 2078.98
517836 2.74201e+06 2078.51
517836 2.74201e+06 2079.02
517838 2.74203e+06 2059.8
517838 2.74203e+06 2060.6
517841 2.74206e+06 2030.41
517843 2.74208e+06 2018.05
517843 2.74208e+06 2017.94
517843 2.74208e+06 2017.92
517843 2.74208e+06 2018
517843 2.74208e+06 2017.93
517843 2.74208e+06 2018.35
517843 2.74208e+06 2018.2
517844 2.7421e+06 2017.92
517847 2.74213e+06 2019.4
517850 2.74215e+06 2019.27
517852 2.74218e+06 2019
517853 2.74219e+06 2019.55
517853 2.74219e+06 2018.79
517853 2.74219e+06 2018.51
517853 2.74219e+06 2018.03
517853 2.74219e+06 2018.98
517855 2.74221e+06 2018.42
517855 2.74221e+06 2018.86
517858 2.74224e+06 2018.68
517858 2.74224e+06 2018.45
517859 2.74225e+06 2030.21
517859 2.74225e+06 2030.65
517860 2.74226e+06 2033.69
517860 2.74226e+06 2034.28
514663 2.74228e+06 1965
514666 2.74231e+06 1964.94
514668 2.74234e+06 1963.48
514670 2.74235e+06 1967.18
514670 2.74235e+06 1967.2
514670 2.74235e+06 1967.12
514670 2.74235e+06 1967.1
514671 2.74237e+06 1967.49
514674 2.7424e+06 1968.12
514676 2.74242e+06 1968.14
514680 2.74246e+06 1978.08
514682 2.74248e+06 1981.21
514695 2.7426e+06 1971.56
514698 2.74263e+06 1961.88
514699 2.74264e+06 1963.02
514702 2.74268e+06 1958.98
514703 2.74269e+06 1962.78
514706 2.74272e+06 1963.38
514706 2.74272e+06 1963.32
514706 2.74272e+06 1963.34
514706 2.74272e+06 1963.28
514706 2.74272e+06 1963.36
514706 2.74272e+06 1963.1
514706 2.74272e+06 1963.3
514706 2.74272e+06 1963.45
514706 2.74272e+06 1963.04
514706 2.74272e+06 1963.27
514706 2.74272e+06 1963.01
514708 2.74274e+06 1963.26
514708 2.74274e+06 1963.31
514708 2.74274e+06 1962.73
514708 2.74274e+06 1963.22
514708 2.74274e+06 1963
514708 2.74274e+06 1963.12
514708 2.74274e+06 1963.33
514708 2.74274e+06 1963.38
514708 2.74274e+06 1963.36
514708 2.74274e+06 1963.4
514707 2.74274e+06 1963.15
514711 2.74277e+06 1960.27
514712 2.74279e+06 1962.67
514715 2.74282e+06 1958.69
514718 2.74284e+06 1962.79
514721 2.74287e+06 1962.87
514721 2.74288e+06 1957.26
514724 2.7429e+06 1962.47
514726 2.74293e+06 1962.72
514730 2.74296e+06 1963.3
514730 2.74296e+06 1963.37
514730 2.74296e+06 1963.33
514730 2.74296e+06 1963.35
514730 2.74296e+06 1962.58
514730 2.74296e+06 1963.31
514730 2.74296e+06 1963.02
514730 2.74296e+06 1963.23
514732 2.74298e+06 1963.26
514732 2.74298e+06 1963.44
514732 2.74298e+06 1963.3
514732 2.74298e+06 1963.16
514732 2.74298e+06 1962.93
514731 2.74298e+06 1963.33
514731 2.74298e+06 1963.26
514731 2.74298e+06 1963.39
514731 2.74298e+06 1963.25
514731 2.74298e+06 1963.35
514731 2.74298e+06 1963.12
514731 2.74298e+06 1963.32
514733 2.743e+06 1963.19
514733 2.743e+06 1963.24
514733 2.743e+06 1963.2
514733 2.743e+06 1963.31
514733 2.743e+06 1962.63
514733 2.743e+06 1963.25
514733 2.743e+06 1963.26
514733 2.743e+06 1963.37
514736 2.74303e+06 1963.4
514736 2.74303e+06 1963.09
514736 2.74303e+06 1962.97
514736 2.74303e+06 1963.18
514736 2.74303e+06 1963.26
514736 2.74303e+06 1962.96
514736 2.74303e+06 1963.05
514736 2.74303e+06 1962.91
514736 2.74303e+06 1963.2
514736 2.74303e+06 1963.22
514737 2.74305e+06 1962.64
514737 2.74305e+06 1963.3
514737 2.74305e+06 1963.31
514740 2.74307e+06 1963.41
514740 2.74307e+06 1963.72
514740 2.74307e+06 1963.3
514740 2.74307e+06 1963.59
514740 2.74307e+06 1962.96
514740 2.74307e+06 1963.27
517862 2.74228e+06 2039
517864 2.7423e+06 2039.53
517867 2.74233e+06 2050.78
517870 2.74236e+06 2078.2
517871 2.74237e+06 2082.3
517874 2.7424e+06 2105.02
517875 2.74242e+06 2109.41
517880 2.74246e+06 2119.63
517881 2.74247e+06 2119.62
517882 2.74249e+06 2099.86
517882 2.74249e+06 2100.33
517882 2.74249e+06 2100.2
517884 2.7425e+06 2092.11
517884 2.7425e+06 2093.07
517885 2.74252e+06 2100.22
517887 2.74254e+06 2113.46
517891 2.74257e+06 2129.11
517893 2.7426e+06 2131.78
517896 2.74263e+06 2130.56
517899 2.74265e+06 2131.2
517901 2.74267e+06 2131.71
517908 2.74274e+06 2097.9
517911 2.74277e+06 2088.26
517911 2.74278e+06 2092.43
517914 2.74281e+06 2097.95
517917 2.74284e+06 2082.29
517918 2.74286e+06 2058.89
517921 2.74289e+06 2039.15
517922 2.7429e+06 2038.85
517928 2.74296e+06 2073.21
517930 2.74298e+06 2058.71
517931 2.74299e+06 2063.59
517931 2.74299e+06 2063.35
517931 2.743e+06 2059.18
517934 2.74302e+06 2069.15
517938 2.74306e+06 2088.39
517938 2.74307e+06 2090.64
514740 2.74308e+06 1963.29
514744 2.74312e+06 1958.91
514745 2.74313e+06 1966.05
514745 2.74313e+06 1965.42
514745 2.74313e+06 1965.59
514745 2.74313e+06 1965.64
514745 2.74313e+06 1965.63
514748 2.74315e+06 1967.89
514748 2.74315e+06 1967.72
514751 2.74319e+06 1967.63
514753 2.7432e+06 1970.04
514755 2.74322e+06 1977.18
514758 2.74325e+06 1980.9
514760 2.74327e+06 1980.77
514761 2.74328e+06 1981.29
514762 2.74329e+06 1985.35
514762 2.74329e+06 1985.23
514762 2.74329e+06 1984.75
514765 2.74332e+06 1987.8
514768 2.74335e+06 1988.15
514770 2.74337e+06 1988.94
514771 2.74339e+06 1992.11
514771 2.74339e+06 1991.49
514773 2.74341e+06 1993.05
514773 2.74341e+06 1993.92
514773 2.74341e+06 1993.84
514773 2.74341e+06 1993.68
514773 2.74341e+06 1993.7
514784 2.74352e+06 1997.1
514784 2.74352e+06 1997.43
514784 2.74352e+06 1997.29
514785 2.74353e+06 1992.89
514785 2.74353e+06 1992.37
514784 2.74353e+06 1992.23
514784 2.74353e+06 1992.53
514787 2.74356e+06 1998.8
514789 2.74358e+06 2000.06
514796 2.74364e+06 2002.22
514799 2.74367e+06 2001.6
514799 2.74368e+06 2001.66
514801 2.7437e+06 2004.53
514804 2.74373e+06 2007.59
514808 2.74377e+06 2007.17
514809 2.74378e+06 2009.1
514811 2.7438e+06 2009.26
514814 2.74383e+06 2010.62
514815 2.74385e+06 2012.11
514818 2.74387e+06 2014.03
517940 2.74308e+06 2098.31
517944 2.74312e+06 2108.16
517945 2.74313e+06 2112.68
517945 2.74313e+06 2112.03
517946 2.74315e+06 2118.12
517949 2.74317e+06 2122.94
517952 2.7432e+06 2129.55
517955 2.74323e+06 2135.63
517956 2.74325e+06 2129.3
517956 2.74325e+06 2129.05
517958 2.74327e+06 2138.35
517960 2.74329e+06 2139.93
517962 2.74331e+06 2138.95
517963 2.74332e+06 2142.26
517965 2.74334e+06 2143.1
517969 2.74338e+06 2148.78
517970 2.74339e+06 2149.63
517973 2.74342e+06 2158.57
517976 2.74345e+06 2159.47
517979 2.74348e+06 2168.32
517981 2.7435e+06 2169.34
517981 2.74351e+06 2170.68
517983 2.74353e+06 2178.96
517985 2.74355e+06 2179.94
517986 2.74356e+06 2188.34
517986 2.74356e+06 2189.34
517988 2.74358e+06 2188.37
517991 2.74361e+06 2203.07
517997 2.74366e+06 2209.61
517999 2.74369e+06 2211.15
518003 2.74372e+06 2211.21
518004 2.74373e+06 2210
518012 2.74382e+06 2138.35
514824 2.74394e+06 2018.65
514825 2.74395e+06 2018.92
514827 2.74397e+06 2018.66
514830 2.744e+06 2023.28
514832 2.74402e+06 2024.73
514838 2.74408e+06 2028.96
514839 2.74409e+06 2027.64
514838 2.74409e+06 2032.19
514843 2.74413e+06 2033.99
514846 2.74416e+06 2044.24
514846 2.74416e+06 2044.44
514848 2.74418e+06 2042.18
514848 2.74418e+06 2042.07
514848 2.74418e+06 2041.84
514849 2.7442e+06 2042.23
514851 2.74421e+06 2044
514853 2.74424e+06 2047.3
514858 2.74428e+06 2048.09
514858 2.74428e+06 2048.84
514858 2.74428e+06 2048.3
514858 2.74428e+06 2048.81
514858 2.74428e+06 2047.6
514858 2.74429e+06 2048.82
514858 2.74429e+06 2048.21
514861 2.74431e+06 2048.35
514861 2.74431e+06 2048.93
514861 2.74431e+06 2049.03
514861 2.74431e+06 2048.79
514861 2.74431e+06 2048.9
514861 2.74431e+06 2048.69
514861 2.74431e+06 2048.85
514861 2.74431e+06 2048.58
514865 2.74435e+06 2047.61
514866 2.74436e+06 2048.97
514869 2.7444e+06 2044.23
514869 2.7444e+06 2044.28
514869 2.7444e+06 2044.62
514869 2.7444e+06 2044.12
514871 2.74442e+06 2043.33
514871 2.74442e+06 2043.77
514871 2.74442e+06 2043.55
514871 2.74442e+06 2043.53
514871 2.74442e+06 2043.27
514871 2.74442e+06 2043.04
514872 2.74444e+06 2041.42
514872 2.74444e+06 2041.49
514872 2.74444e+06 2041.59
514875 2.74447e+06 2037.55
514877 2.74449e+06 2037.77
514877 2.74449e+06 2037.79
514877 2.74449e+06 2038.09
514877 2.74449e+06 2037.96
514877 2.74449e+06 2037.9
514877 2.74449e+06 2038.4
514877 2.74449e+06 2037.85
514879 2.74451e+06 2031.79
514879 2.74451e+06 2031.98
514882 2.74454e+06 2031.31
514884 2.74455e+06 2030.04
514888 2.74459e+06 2029.09
514888 2.74459e+06 2029.49
514888 2.74459e+06 2028.61
514890 2.74461e+06 2021.08
514890 2.74461e+06 2021.13
514891 2.74462e+06 2020.42
514891 2.74462e+06 2021.1
514891 2.74462e+06 2021.14
514895 2.74466e+06 2023.09
518021 2.74392e+06 2112.65
518021 2.74392e+06 2113.64
518022 2.74394e+06 2110.12
518022 2.74394e+06 2109.51
518022 2.74394e+06 2109.82
518022 2.74394e+06 2108.8
518022 2.74394e+06 2109.06
518025 2.74396e+06 2099.36
518027 2.74399e+06 2083.72
518029 2.74401e+06 2078.26
518029 2.74401e+06 2078.89
518029 2.74401e+06 2078.22
518030 2.74402e+06 2079.06
518030 2.74402e+06 2078.63
518033 2.74405e+06 2086.25
518036 2.74408e+06 2083.69
518040 2.74411e+06 2080.73
518042 2.74413e+06 2078.75
518041 2.74413e+06 2080.32
518041 2.74413e+06 2080.62
518041 2.74413e+06 2080.7
518041 2.74413e+06 2080.77
518041 2.74413e+06 2080.68
518041 2.74413e+06 2080.73
518045 2.74416e+06 2058.68
518047 2.74418e+06 2057.94
518048 2.7442e+06 2058.01
518051 2.74423e+06 2060.77
518053 2.74425e+06 2059.67
518056 2.74428e+06 2059.57
518056 2.74428e+06 2060.07
518056 2.74428e+06 2059.37
518056 2.74428e+06 2060.19
518058 2.7443e+06 2059.42
518058 2.7443e+06 2059.43
518058 2.7443e+06 2059.26
518058 2.7443e+06 2058.82
518058 2.7443e+06 2059.45
518058 2.7443e+06 2059.2
518060 2.74432e+06 2058.28
518060 2.74432e+06 2058.57
518062 2.74434e+06 2068.06
518062 2.74434e+06 2068.34
518062 2.74434e+06 2068.26
518062 2.74434e+06 2067.95
518062 2.74434e+06 2068.21
518062 2.74434e+06 2068.22
518062 2.74434e+06 2068.15
518062 2.74434e+06 2068.04
518065 2.74437e+06 2055.06
518066 2.74438e+06 2055.09
518065 2.74438e+06 2055.04
518065 2.74438e+06 2055.33
518070 2.74442e+06 2060.93
518070 2.74443e+06 2065.01
518073 2.74446e+06 2071.21
518076 2.74448e+06 2070.84
518080 2.74452e+06 2058.5
518081 2.74454e+06 2052.36
518082 2.74455e+06 2057.9
518086 2.74458e+06 2058.08
518087 2.7446e+06 2054.91
518090 2.74463e+06 2055.19
518089 2.74463e+06 2055.06
518092 2.74466e+06 2060.16
518093 2.74467e+06 2065.98
514899 2.7447e+06 2019.56
514901 2.74472e+06 2017.74
514903 2.74475e+06 2013.3
514904 2.74476e+06 2009
514906 2.74479e+06 2010.67
514909 2.74482e+06 2012.38
514913 2.74485e+06 2017.47
514914 2.74486e+06 2017.47
514916 2.74489e+06 2020.06
514916 2.74489e+06 2019.16
514916 2.74489e+06 2019.45
514917 2.7449e+06 2022.08
514917 2.7449e+06 2021.46
514917 2.7449e+06 2023.01
514917 2.7449e+06 2022.69
514917 2.7449e+06 2021.68
514917 2.7449e+06 2020.86
514917 2.7449e+06 2021.31
514919 2.74491e+06 2022.54
514920 2.74493e+06 2019.62
514921 2.74494e+06 2022.08
514926 2.74499e+06 2027.26
514926 2.74499e+06 2028.02
514926 2.74499e+06 2028.22
514927 2.745e+06 2028.34
514927 2.745e+06 2029.3
514927 2.745e+06 2027.87
514927 2.745e+06 2028.78
514927 2.745e+06 2029.33
514929 2.74502e+06 2027.5
514929 2.74502e+06 2027.9
514933 2.74506e+06 2029.64
514935 2.74508e+06 2027.87
514938 2.74511e+06 2020.64
514940 2.74513e+06 2017.14
514945 2.74519e+06 1993.32
514949 2.74523e+06 2009.47
514951 2.74525e+06 2008.86
514954 2.74527e+06 2007.67
514954 2.74528e+06 2002.3
514957 2.74531e+06 2009.61
514960 2.74534e+06 2017.87
514962 2.74536e+06 2017.53
514964 2.74538e+06 2017.42
514964 2.74538e+06 2017.64
514966 2.7454e+06 2031.91
514966 2.7454e+06 2032.18
514969 2.74543e+06 2047.14
514971 2.74545e+06 2051.6
518095 2.74469e+06 2066.23
518098 2.74472e+06 2068.43
518100 2.74474e+06 2069.19
518100 2.74474e+06 2068.33
518100 2.74474e+06 2069.72
518100 2.74474e+06 2069.21
518103 2.74476e+06 2064.65
518106 2.74479e+06 2062.36
518107 2.74481e+06 2060.56
518109 2.74482e+06 2061.32
518112 2.74486e+06 2055.95
518113 2.74487e+06 2056.13
518113 2.74487e+06 2056.44
518115 2.74488e+06 2056.55
518115 2.74489e+06 2049.52
518119 2.74493e+06 2050.36
518122 2.74497e+06 2040.16
518124 2.74499e+06 2044.77
518124 2.74499e+06 2044.45
518124 2.74499e+06 2044.64
518124 2.74499e+06 2044.61
518124 2.74499e+06 2044.53
518127 2.74501e+06 2041.63
518127 2.74501e+06 2041.31
518127 2.74501e+06 2041.85
518129 2.74504e+06 2041.75
518131 2.74506e+06 2041.27
518134 2.74509e+06 2035.15
518139 2.74514e+06 2034.22
518139 2.74514e+06 2033.85
518139 2.74514e+06 2033.41
518141 2.74516e+06 2029.35
518141 2.74516e+06 2029.84
518144 2.74518e+06 2029.07
518144 2.74518e+06 2029.28
518144 2.74519e+06 2029.04
518144 2.74519e+06 2029.14
518146 2.7452e+06 2028.83
518146 2.7452e+06 2028.8
518146 2.7452e+06 2028.99
518150 2.74525e+06 2020.06
518152 2.74527e+06 2018.55
518154 2.7453e+06 2021.11
518156 2.74531e+06 2021.4
518161 2.74537e+06 2020.48
518164 2.7454e+06 2016.22
518168 2.74544e+06 2014.42
518168 2.74544e+06 2014.65
518168 2.74544e+06 2014.62
518168 2.74544e+06 2014.54
518168 2.74544e+06 2015.39
518169 2.74545e+06 2014.62
518169 2.74545e+06 2014.38
518169 2.74545e+06 2014.56
518169 2.74545e+06 2014.46
518169 2.74545e+06 2014.54
518171 2.74547e+06 2014.25
518171 2.74547e+06 2014.45
518171 2.74547e+06 2014.34
518171 2.74547e+06 2014.32
518171 2.74547e+06 2014.15
518171 2.74547e+06 2014.4
514975 2.74548e+06 2058.74
514976 2.7455e+06 2068.04
514980 2.74554e+06 2078.96
514981 2.74556e+06 2070.38
514983 2.74558e+06 2067.28
514986 2.74561e+06 2062.5
514990 2.74564e+06 2058.6
514990 2.74565e+06 2057.37
514993 2.74568e+06 2048.1
514993 2.74568e+06 2047.27
514994 2.74569e+06 2047.65
514994 2.74569e+06 2047.46
514994 2.74569e+06 2047.61
514995 2.7457e+06 2047.23
514998 2.74573e+06 2039.32
515000 2.74576e+06 2024.55
515000 2.74576e+06 2024.86
515000 2.74576e+06 2024.41
515002 2.74578e+06 2018.36
515002 2.74578e+06 2017.88
515003 2.74579e+06 2008.09
515005 2.74581e+06 2007.95
515009 2.74585e+06 1997.2
515011 2.74587e+06 1997.92
515013 2.74589e+06 1997.35
515015 2.74591e+06 1999.64
515015 2.74591e+06 1998.72
515017 2.74593e+06 1998.14
515019 2.74595e+06 2011.07
515019 2.74595e+06 2010.65
515020 2.74596e+06 1997.86
515022 2.74598e+06 1991.43
515024 2.74601e+06 1972.43
515028 2.74604e+06 1967.47
515030 2.74606e+06 1960.87
515032 2.74609e+06 1968.08
515033 2.7461e+06 1968.54
515037 2.74614e+06 1977.16
515039 2.74616e+06 1978.48
515040 2.74617e+06 1981.66
515042 2.7462e+06 1988.02
515043 2.74621e+06 1987.4
515045 2.74623e+06 1968.15
515045 2.74623e+06 1967.23
515047 2.74625e+06 1958.18
518171 2.74547e+06 2014.15
518172 2.74548e+06 2011.26
518174 2.7455e+06 2009.29
518178 2.74554e+06 2009.74
518181 2.74556e+06 2010.52
518181 2.74556e+06 2011.39
518181 2.74556e+06 2011.41
518181 2.74556e+06 2010.42
518181 2.74557e+06 2008.22
518185 2.7456e+06 2008.32
518188 2.74564e+06 2005.79
518188 2.74564e+06 2006.66
518188 2.74564e+06 2006.5
518188 2.74564e+06 2006.39
518188 2.74564e+06 2006.53
518188 2.74564e+06 2006.71
518188 2.74564e+06 2006.28
518190 2.74566e+06 2005.99
518190 2.74566e+06 2005.82
518190 2.74566e+06 2006.03
518190 2.74566e+06 2005.39
518191 2.74567e+06 2005.51
518191 2.74567e+06 2005.89
518191 2.74567e+06 2006.29
518191 2.74567e+06 2006.55
518191 2.74567e+06 2006.02
518191 2.74567e+06 2006.44
518191 2.74567e+06 2006.15
518193 2.74569e+06 2006.52
518193 2.74569e+06 2005.57
518193 2.74569e+06 2006.15
518193 2.74569e+06 2006.1
518193 2.74569e+06 2005.64
518193 2.74569e+06 2006.37
518193 2.74569e+06 2005.88
518192 2.74569e+06 2005.63
518192 2.74569e+06 2006.07
518192 2.74569e+06 2005.87
518192 2.74569e+06 2005.7
518196 2.74572e+06 1999.07
518199 2.74576e+06 2004.26
518200 2.74577e+06 1998.14
518208 2.74586e+06 2011.32
518213 2.7459e+06 2000.39
518220 2.74598e+06 1989.7
518225 2.74602e+06 1990.49
518225 2.74603e+06 1993.37
518225 2.74603e+06 1992.89
518225 2.74603e+06 1992.59
518225 2.74603e+06 1991.79
518225 2.74603e+06 1992.97
518227 2.74605e+06 1992.91
518227 2.74605e+06 1993.57
518227 2.74605e+06 1993.43
518230 2.74608e+06 1994.62
518234 2.74612e+06 1992.77
518236 2.74614e+06 1994.81
518236 2.74614e+06 1995.42
518236 2.74614e+06 1995.22
518236 2.74614e+06 1995.12
518236 2.74614e+06 1994.79
518237 2.74616e+06 1990.69
518239 2.74617e+06 1994.55
518239 2.74617e+06 1994.71
518241 2.74619e+06 1995.31
518241 2.74619e+06 1994.61
518242 2.7462e+06 1988.66
518245 2.74623e+06 1987.98
518248 2.74626e+06 1994.04
515053 2.74631e+06 1930.48
515055 2.74633e+06 1928.28
515055 2.74633e+06 1928.07
515055 2.74633e+06 1929.17
515055 2.74633e+06 1928.92
515055 2.74633e+06 1928.75
515055 2.74633e+06 1927.28
515055 2.74633e+06 1928.4
515056 2.74634e+06 1927.12
515056 2.74634e+06 1927.18
515056 2.74634e+06 1927.17
515056 2.74634e+06 1927.28
515063 2.74641e+06 1927.14
515070 2.74647e+06 1927.35
515072 2.74649e+06 1929.16
515072 2.74649e+06 1928.76
515074 2.74651e+06 1929.05
515075 2.74652e+06 1929.13
515078 2.74655e+06 1927.67
515078 2.74656e+06 1929.42
515078 2.74656e+06 1929.33
515078 2.74656e+06 1929.31
515078 2.74656e+06 1929.6
515078 2.74656e+06 1929.61
515080 2.74658e+06 1929.56
515084 2.74662e+06 1941.64
515085 2.74663e+06 1941.32
515089 2.74667e+06 1942.25
515090 2.74668e+06 1942.98
515093 2.74672e+06 1942.96
515095 2.74673e+06 1942.77
515098 2.74677e+06 1940.8
515100 2.74679e+06 1941.08
515100 2.74679e+06 1940.51
515100 2.74679e+06 1940.97
515100 2.74679e+06 1941.11
515100 2.74679e+06 1940.86
515101 2.7468e+06 1940.97
515101 2.7468e+06 1941.11
515101 2.7468e+06 1941.07
515101 2.7468e+06 1940.78
515101 2.7468e+06 1940.72
515101 2.7468e+06 1940.62
515103 2.74682e+06 1941.52
515103 2.74682e+06 1941.3
515107 2.74686e+06 1941.13
515107 2.74686e+06 1941.87
515107 2.74686e+06 1941.73
515107 2.74686e+06 1941.74
515107 2.74686e+06 1941.63
515108 2.74687e+06 1941.81
515108 2.74687e+06 1941.8
515108 2.74687e+06 1942.07
515108 2.74687e+06 1941.47
515108 2.74687e+06 1941.7
515108 2.74687e+06 1941.74
515110 2.74689e+06 1938.65
515115 2.74693e+06 1967.16
515117 2.74696e+06 1938.25
515118 2.74697e+06 1944.73
515120 2.747e+06 1947.21
515122 2.74701e+06 1948.97
515122 2.74701e+06 1948.35
515124 2.74703e+06 1947.31
515124 2.74703e+06 1948.04
515124 2.74704e+06 1948.92
515127 2.74706e+06 1949.08
518249 2.74628e+06 1994.39
518252 2.74631e+06 2004.27
518255 2.74634e+06 1992.37
518258 2.74637e+06 2007.98
518259 2.74639e+06 2008.38
518259 2.74639e+06 2007.97
518260 2.7464e+06 2008.3
518260 2.7464e+06 2008.27
518260 2.7464e+06 2008.31
518267 2.74646e+06 2007.94
518269 2.74648e+06 2008.66
518269 2.74648e+06 2009.66
518269 2.74648e+06 2008.24
518270 2.7465e+06 1999.4
518272 2.74652e+06 1999.82
518274 2.74653e+06 1999.25
518277 2.74656e+06 2000.09
518279 2.74658e+06 1998.72
518281 2.7466e+06 2000.34
518285 2.74664e+06 2000.88
518289 2.74668e+06 1999.54
518291 2.74671e+06 2001.13
518292 2.74672e+06 2002.62
518292 2.74672e+06 2003.33
518292 2.74672e+06 2002.38
518295 2.74674e+06 1998.13
518296 2.74676e+06 2001.96
518296 2.74676e+06 2002.47
518296 2.74676e+06 2002.62
518296 2.74676e+06 2002.9
518298 2.74678e+06 2001.57
518298 2.74678e+06 2002.51
518298 2.74678e+06 2001.99
518298 2.74678e+06 2002.38
518300 2.7468e+06 2000.63
518300 2.7468e+06 1999.92
518300 2.7468e+06 2000.61
518300 2.7468e+06 2000.48
518300 2.7468e+06 2000.64
518303 2.74683e+06 1999.48
518303 2.74683e+06 1999.79
518303 2.74683e+06 1999
518305 2.74685e+06 1998.7
518305 2.74685e+06 1998.67
518305 2.74685e+06 1999.19
518305 2.74685e+06 1999.35
518305 2.74685e+06 1999.48
518306 2.74686e+06 1999.17
518306 2.74686e+06 1999.5
518306 2.74686e+06 1999.19
518306 2.74686e+06 1999.13
518309 2.74689e+06 1998.46
518312 2.74691e+06 2000.97
518312 2.74691e+06 2000.68
518312 2.74691e+06 2000.72
518313 2.74693e+06 2000.16
518313 2.74693e+06 2000.86
518313 2.74693e+06 2000.31
518313 2.74693e+06 2000.64
518313 2.74693e+06 2001.14
518313 2.74693e+06 2000.57
518317 2.74697e+06 1999.52
518318 2.74698e+06 1999.54
518327 2.74707e+06 1992.95
515128 2.74708e+06 1950.11
515131 2.74711e+06 1949.94
515134 2.74713e+06 1954.31
515136 2.74716e+06 1960.77
515137 2.74717e+06 1963.61
515140 2.7472e+06 1967.19
515143 2.74722e+06 1968.42
515146 2.74726e+06 1974.63
515149 2.74728e+06 1968.19
515148 2.74728e+06 1970.56
515150 2.74729e+06 1973.08
515150 2.74729e+06 1972.74
515152 2.74732e+06 1989.14
515155 2.74735e+06 1977.12
515158 2.74738e+06 1974.25
515159 2.7474e+06 1972.32
515162 2.74742e+06 1968.11
515164 2.74745e+06 1959.77
515166 2.74746e+06 1958.6
515169 2.7475e+06 1951.49
515169 2.7475e+06 1950.5
515169 2.7475e+06 1951.77
515169 2.7475e+06 1952.05
515171 2.74752e+06 1951.37
515171 2.74752e+06 1950.66
515171 2.74752e+06 1951.04
515171 2.74752e+06 1949.69
515171 2.74752e+06 1949.99
515171 2.74752e+06 1950.44
515171 2.74752e+06 1950.29
515172 2.74753e+06 1950.22
515172 2.74753e+06 1950.61
515172 2.74753e+06 1950.31
515172 2.74753e+06 1951.19
515172 2.74753e+06 1949.57
515172 2.74753e+06 1950
515174 2.74755e+06 1949.36
515176 2.74757e+06 1951
515178 2.74759e+06 1945.15
515181 2.74762e+06 1937.98
515183 2.74764e+06 1937.16
515186 2.74767e+06 1935.46
515188 2.74769e+06 1934.34
515190 2.74772e+06 1931.98
515193 2.74774e+06 1929.85
515193 2.74775e+06 1927.97
515197 2.74779e+06 1929.83
515199 2.74781e+06 1928.41
515202 2.74784e+06 1911.24
515204 2.74786e+06 1915.9
515204 2.74786e+06 1915.8
515204 2.74786e+06 1915.82
515204 2.74786e+06 1915.58
515204 2.74786e+06 1915.63
515204 2.74786e+06 1915.3
518327 2.74707e+06 1992.95
518328 2.74708e+06 1989.88
518334 2.74714e+06 1994.58
518334 2.74715e+06 1991.14
518337 2.74717e+06 1990.04
518340 2.74721e+06 1994.27
518341 2.74722e+06 1993.89
518344 2.74725e+06 1988.67
518346 2.74727e+06 1991.84
518350 2.74731e+06 1992.92
518351 2.74733e+06 1989.54
518354 2.74735e+06 1993.47
518356 2.74738e+06 1993.42
518358 2.7474e+06 1993.73
518361 2.74743e+06 1993.41
518363 2.74745e+06 1990.85
518364 2.74746e+06 1994.11
518367 2.74749e+06 1995.93
518373 2.74755e+06 1998.11
518373 2.74755e+06 1997.99
518373 2.74755e+06 1998.21
518373 2.74755e+06 1998.1
518373 2.74755e+06 1998.04
518375 2.74757e+06 1998.12
518375 2.74757e+06 1998.01
518375 2.74757e+06 1998.17
518375 2.74757e+06 1998.18
518375 2.74757e+06 1998.27
518375 2.74757e+06 1998.07
518375 2.74757e+06 1998.14
518375 2.74757e+06 1998.06
518376 2.74758e+06 1998.14
518376 2.74758e+06 1998.18
518376 2.74758e+06 1997.98
518376 2.74758e+06 1997.97
518376 2.74758e+06 1998.06
518380 2.74762e+06 1990.87
518382 2.74764e+06 1991.23
518383 2.74765e+06 1990.66
518386 2.74768e+06 1992.25
518390 2.74772e+06 1990.67
518390 2.74772e+06 1991.41
518390 2.74772e+06 1991.11
518392 2.74774e+06 1991.26
518392 2.74774e+06 1990.96
518392 2.74774e+06 1991.29
518392 2.74774e+06 1990.43
518392 2.74774e+06 1991.21
518392 2.74774e+06 1991.18
518393 2.74776e+06 1991
518393 2.74776e+06 1991.26
518394 2.74777e+06 1991.08
518394 2.74777e+06 1991.21
518394 2.74777e+06 1991.15
518394 2.74777e+06 1991.22
518397 2.74779e+06 1991.3
518397 2.74779e+06 1990.91
515206 2.74788e+06 1910.41
515208 2.74791e+06 1909.79
515213 2.74795e+06 1937.15
515219 2.74802e+06 1917.38
515223 2.74806e+06 1922.98
515223 2.74806e+06 1922.58
515223 2.74806e+06 1923.34
515223 2.74806e+06 1923
515226 2.74808e+06 1924.75
515225 2.74808e+06 1923.02
515225 2.74808e+06 1922.12
515225 2.74808e+06 1923.22
515225 2.74808e+06 1923.35
515226 2.74809e+06 1921.28
515226 2.74809e+06 1921.99
515229 2.74812e+06 1920.95
515231 2.74814e+06 1918.26
515234 2.74818e+06 1919.95
515239 2.74822e+06 1919.46
515241 2.74824e+06 1938.9
515245 2.74828e+06 1911.15
515245 2.74829e+06 1916.04
515248 2.74832e+06 1915.72
515249 2.74833e+06 1913.86
515249 2.74833e+06 1914.11
515249 2.74833e+06 1914.4
515249 2.74833e+06 1914.37
515249 2.74833e+06 1914.57
515251 2.74834e+06 1911.9
515259 2.74843e+06 1907.9
515263 2.74847e+06 1908.84
515263 2.74847e+06 1908.97
515263 2.74847e+06 1908.75
515263 2.74847e+06 1908.44
515264 2.74848e+06 1909
515264 2.74848e+06 1908.89
515264 2.74848e+06 1908.77
515264 2.74848e+06 1909.05
515264 2.74848e+06 1908.82
515264 2.74848e+06 1908.86
515264 2.74848e+06 1908.69
515265 2.7485e+06 1908.65
515268 2.74853e+06 1908.26
515271 2.74855e+06 1910.9
515271 2.74855e+06 1910.37
515273 2.74857e+06 1910.63
515273 2.74857e+06 1910.92
515273 2.74857e+06 1910.77
515273 2.74857e+06 1911.1
515273 2.74857e+06 1911.45
515274 2.74859e+06 1910.76
515274 2.74859e+06 1910.36
515274 2.74859e+06 1910.71
515274 2.74859e+06 1910.82
515275 2.7486e+06 1910.67
515275 2.7486e+06 1910.64
515275 2.7486e+06 1910.31
515277 2.74862e+06 1907.3
515281 2.74866e+06 1908.94
518406 2.74789e+06 1991.54
518408 2.74791e+06 1990.3
518411 2.74794e+06 1989.53
518411 2.74794e+06 1990.34
518413 2.74796e+06 1990.24
518413 2.74796e+06 1989.99
518413 2.74796e+06 1990.32
518414 2.74797e+06 1990.38
518414 2.74797e+06 1990.81
518414 2.74797e+06 1990.47
518414 2.74797e+06 1990.15
518418 2.74801e+06 1991.13
518420 2.74803e+06 1989.75
518422 2.74806e+06 1988.77
518423 2.74807e+06 1988.56
518426 2.7481e+06 1988.13
518427 2.74811e+06 1988.15
518436 2.7482e+06 2010.42
518438 2.74822e+06 1988.42
518441 2.74825e+06 1988.18
518441 2.74825e+06 1988.97
518441 2.74825e+06 1987.94
518441 2.74825e+06 1988.7
518441 2.74825e+06 1988.76
518443 2.74827e+06 1987.89
518443 2.74827e+06 1988.11
518445 2.74829e+06 1988.11
518445 2.74829e+06 1988.3
518446 2.74831e+06 1989.23
518446 2.74831e+06 1989.21
518446 2.74831e+06 1988.23
518449 2.74833e+06 1998.21
518450 2.74835e+06 1999.26
518450 2.74835e+06 1998.69
518450 2.74835e+06 1999.79
518452 2.74836e+06 1997.93
518455 2.7484e+06 1989.94
518461 2.74846e+06 1991.42
518463 2.74848e+06 1989.91
518466 2.74851e+06 1988.41
518469 2.74854e+06 1990.08
518470 2.74855e+06 1990.01
518473 2.74858e+06 1988.07
518475 2.7486e+06 1989.7
518475 2.7486e+06 1990.12
518476 2.74861e+06 1990.6
518476 2.74861e+06 1989.88
518476 2.74861e+06 1990.12
518476 2.74861e+06 1990.71
518476 2.74861e+06 1990.11
518476 2.74861e+06 1990.5
518477 2.74862e+06 1988.33
518481 2.74866e+06 1988.61
518481 2.74866e+06 1988.69
518481 2.74866e+06 1988.25
518481 2.74866e+06 1988.65
518481 2.74867e+06 1988.69
518481 2.74867e+06 1988.44
518481 2.74867e+06 1988.54
518481 2.74867e+06 1988.71
518481 2.74867e+06 1988.82
518481 2.74867e+06 1988.67
515282 2.74868e+06 1909.3
515287 2.74872e+06 1907.23
515288 2.74873e+06 1907.23
515289 2.74875e+06 1907.36
515292 2.74878e+06 1927.48
515298 2.74884e+06 1927.16
515302 2.74889e+06 1907.26
515304 2.7489e+06 1907.12
515307 2.74893e+06 1907.36
515310 2.74896e+06 1907.57
515310 2.74896e+06 1907.46
515310 2.74896e+06 1908.42
515310 2.74896e+06 1908.09
515310 2.74896e+06 1908.5
515310 2.74896e+06 1908.04
515311 2.74897e+06 1907.61
515311 2.74897e+06 1907.81
515311 2.74897e+06 1907.64
515311 2.74897e+06 1907.36
515311 2.74897e+06 1908
515311 2.74897e+06 1907.54
515313 2.74899e+06 1908.9
515313 2.74899e+06 1909.57
515313 2.74899e+06 1908.23
515313 2.74899e+06 1908.98
515313 2.74899e+06 1909.07
515313 2.74899e+06 1909.19
515315 2.74901e+06 1908.45
515315 2.74901e+06 1908.25
515315 2.74901e+06 1908.2
515315 2.74901e+06 1908.42
515315 2.74901e+06 1907.57
515315 2.74901e+06 1909.39
515318 2.74904e+06 1907.82
515320 2.74906e+06 1917.5
515324 2.7491e+06 1909.81
515324 2.7491e+06 1909.99
515324 2.7491e+06 1909.52
515324 2.7491e+06 1909.68
515324 2.7491e+06 1910.03
515324 2.7491e+06 1909.5
515325 2.74911e+06 1909.92
515325 2.74911e+06 1909.7
515327 2.74913e+06 1909.14
515328 2.74915e+06 1908.23
515328 2.74915e+06 1908.28
515328 2.74915e+06 1908.21
515328 2.74915e+06 1907.8
515328 2.74915e+06 1908.07
515330 2.74917e+06 1908.11
515330 2.74917e+06 1907.85
515330 2.74917e+06 1908.19
515330 2.74917e+06 1908.18
515330 2.74917e+06 1908.17
515330 2.74917e+06 1908.08
515330 2.74917e+06 1907.8
515331 2.74918e+06 1907.96
515331 2.74918e+06 1908.14
515331 2.74918e+06 1908
515331 2.74918e+06 1908.12
515331 2.74918e+06 1907.85
515335 2.74922e+06 1912.21
515336 2.74923e+06 1912.04
515339 2.74926e+06 1911.27
515341 2.74928e+06 1913.07
515345 2.74932e+06 1910.89
515346 2.74934e+06 1915.82
515348 2.74935e+06 1912.93
515351 2.74938e+06 1915.54
515351 2.74938e+06 1915.81
515352 2.74939e+06 1915.91
515353 2.7494e+06 1911.68
515354 2.74942e+06 1911.39
515358 2.74945e+06 1907.96
518483 2.74869e+06 1988.49
518485 2.74871e+06 1988.15
518488 2.74874e+06 1988.49
518488 2.74874e+06 1988.57
518488 2.74874e+06 1988.59
518488 2.74874e+06 1988.69
518488 2.74874e+06 1988.87
518488 2.74874e+06 1989.21
518488 2.74874e+06 1988.65
518488 2.74874e+06 1988.54
518488 2.74874e+06 1988.28
518488 2.74874e+06 1988.45
518489 2.74875e+06 1988.42
518489 2.74875e+06 1987.92
518489 2.74875e+06 1987.93
518489 2.74875e+06 1988.69
518491 2.74877e+06 1991.38
518491 2.74877e+06 1991.56
518495 2.74881e+06 1978.35
518496 2.74882e+06 1984.29
518504 2.74891e+06 1990.15
518505 2.74892e+06 1989.37
518507 2.74894e+06 1992.31
518510 2.74897e+06 1995.87
518513 2.749e+06 1995.93
518516 2.74903e+06 1995.18
518517 2.74904e+06 1991.71
518520 2.74907e+06 1981.97
518522 2.74909e+06 1981.52
518530 2.74918e+06 1989.4
518534 2.74921e+06 1989.48
518537 2.74924e+06 1988.9
518537 2.74925e+06 1990.21
518541 2.74929e+06 2002.15
518544 2.74932e+06 1999.92
518545 2.74934e+06 1998.48
518548 2.74936e+06 2001.89
518550 2.74938e+06 2000.31
518550 2.74938e+06 2000.67
518550 2.74938e+06 2000.03
518551 2.74939e+06 2001.19
518551 2.74939e+06 2001.09
518551 2.74939e+06 2000.95
518552 2.74941e+06 2001.11
518552 2.74941e+06 2000.94
518553 2.74942e+06 1998.85
518558 2.74946e+06 2000.73
518558 2.74946e+06 2000.02
515360 2.74948e+06 1915.75
515364 2.74952e+06 1911.48
515365 2.74953e+06 1915.36
515365 2.74953e+06 1915.33
515365 2.74953e+06 1915.23
515365 2.74953e+06 1915.56
515365 2.74953e+06 1915.28
515367 2.74955e+06 1919.45
515367 2.74955e+06 1918.84
515367 2.74955e+06 1918.8
515367 2.74955e+06 1918.53
515367 2.74955e+06 1918.32
515367 2.74955e+06 1918.2
515367 2.74955e+06 1918.5
515367 2.74955e+06 1917.73
515367 2.74955e+06 1918.63
515367 2.74955e+06 1918.47
515367 2.74955e+06 1917.94
515369 2.74957e+06 1919.7
515369 2.74957e+06 1918.89
515369 2.74957e+06 1919.47
515369 2.74957e+06 1919.75
515373 2.74961e+06 1927.97
515375 2.74964e+06 1927.26
515377 2.74965e+06 1928.25
515379 2.74968e+06 1933.74
515380 2.74969e+06 1917.74
515382 2.74971e+06 1918.51
515383 2.74972e+06 1919.27
515386 2.74975e+06 1918.75
515388 2.74977e+06 1923.66
515391 2.7498e+06 1920.6
515392 2.74981e+06 1919.39
515396 2.74985e+06 1923.21
515396 2.74986e+06 1918.72
515400 2.7499e+06 1918.76
515402 2.74991e+06 1917.47
515403 2.74993e+06 1924.41
515403 2.74993e+06 1924.39
515403 2.74993e+06 1924.01
515406 2.74995e+06 1924.23
515406 2.74995e+06 1924
515407 2.74997e+06 1920.86
515411 2.75001e+06 1918.31
515414 2.75004e+06 1918.91
515416 2.75006e+06 1921.91
515427 2.75016e+06 1919.54
515428 2.75017e+06 1917.6
515429 2.75019e+06 1925.09
515431 2.75021e+06 1917.55
515433 2.75023e+06 1917.37
515436 2.75026e+06 1948.71
515437 2.75027e+06 1948.73
518560 2.74949e+06 1998.79
518562 2.7495e+06 1998.76
518564 2.74953e+06 1999.24
518567 2.74955e+06 2001.18
518569 2.74958e+06 1999.15
518572 2.74961e+06 2004.06
518575 2.74963e+06 2010
518575 2.74963e+06 2009.55
518575 2.74963e+06 2010.87
518576 2.74965e+06 2011.02
518581 2.74969e+06 2019.29
518584 2.74973e+06 2021.85
518585 2.74974e+06 2018.45
518589 2.74978e+06 2023.96
518591 2.7498e+06 2021.78
518592 2.74981e+06 2020.09
518596 2.74985e+06 2018.86
518599 2.74988e+06 2016.17
518599 2.74988e+06 2016.45
518601 2.7499e+06 2012.7
518601 2.7499e+06 2013.08
518601 2.7499e+06 2013.31
518601 2.7499e+06 2013.62
518603 2.74992e+06 2010.14
518603 2.74992e+06 2009.39
518603 2.74992e+06 2010.18
518603 2.74992e+06 2010.72
518603 2.74993e+06 2009.44
518603 2.74993e+06 2009.49
518603 2.74993e+06 2009.63
518604 2.74994e+06 2008.23
518604 2.74994e+06 2008.1
518604 2.74994e+06 2008.77
518610 2.75e+06 2002.8
518610 2.75e+06 2003.15
518610 2.75e+06 2003.66
518612 2.75002e+06 2002.54
518612 2.75002e+06 2002.11
518612 2.75002e+06 2002.8
518612 2.75002e+06 2002.29
518612 2.75002e+06 2003.5
518613 2.75004e+06 2001.06
518613 2.75004e+06 2001.72
518613 2.75004e+06 2001.95
518615 2.75005e+06 2001.03
518618 2.75009e+06 1998.52
518622 2.75012e+06 1998.01
518624 2.75014e+06 1995.3
518624 2.75014e+06 1995.42
518625 2.75016e+06 1994.94
518625 2.75016e+06 1995.31
518627 2.75017e+06 1990
518632 2.75021e+06 1990.05
515437 2.75027e+06 1948.73
515446 2.75036e+06 1921.97
515446 2.75037e+06 1917.39
515450 2.7504e+06 1917.17
515452 2.75043e+06 1917.96
515453 2.75044e+06 1917.68
515456 2.75047e+06 1923.66
515460 2.7505e+06 1923.74
515460 2.7505e+06 1922.93
515460 2.7505e+06 1923.98
515461 2.75051e+06 1923.42
515461 2.75051e+06 1923.77
515461 2.75051e+06 1923.59
515461 2.75051e+06 1923.68
515460 2.75051e+06 1923.84
515460 2.75051e+06 1923.73
515460 2.75051e+06 1923.81
515460 2.75051e+06 1923.74
515460 2.75051e+06 1923.55
515460 2.75051e+06 1924.78
515460 2.75051e+06 1923.69
515464 2.75055e+06 1918.07
515467 2.75058e+06 1923.2
515469 2.7506e+06 1927.71
515471 2.75062e+06 1932.45
515474 2.75065e+06 1918.08
515475 2.75066e+06 1920.52
515479 2.7507e+06 1920.22
515479 2.75071e+06 1920.41
515483 2.75074e+06 1919.97
515483 2.75074e+06 1919.93
515483 2.75075e+06 1919.81
515483 2.75075e+06 1920.01
515483 2.75075e+06 1919.4
515483 2.75075e+06 1920.06
515485 2.75076e+06 1919.94
515487 2.75078e+06 1921.12
515490 2.75082e+06 1919.81
515491 2.75083e+06 1921.65
515494 2.75086e+06 1918.81
515497 2.75089e+06 1917.14
515497 2.7509e+06 1913.44
515502 2.75094e+06 1912.12
515502 2.75094e+06 1912.3
515502 2.75094e+06 1912.44
515502 2.75094e+06 1912.07
515502 2.75094e+06 1912.41
515502 2.75094e+06 1912.33
515502 2.75094e+06 1911.94
515504 2.75096e+06 1911.7
515504 2.75096e+06 1911.95
515504 2.75096e+06 1911.78
515504 2.75096e+06 1911.94
515504 2.75096e+06 1912.02
515504 2.75096e+06 1911.96
515504 2.75097e+06 1912.09
