ply
format ascii 1.0
element vertex 1788
property double x
property double y
property double z
end_header
515086 2.74664e+06 1950.84
515086 2.74664e+06 1954.23
515086 2.74664e+06 1949.74
515086 2.74664e+06 1948.86
515088 2.74665e+06 1950.64
515088 2.74665e+06 1952.02
515087 2.74665e+06 1953.44
515087 2.74665e+06 1947.7
515087 2.74665e+06 1947.42
515087 2.74665e+06 1950.8
515089 2.74666e+06 1952.04
515088 2.74666e+06 1949.25
515088 2.74666e+06 1953.92
515088 2.74666e+06 1950.45
515088 2.74666e+06 1950.75
515088 2.74666e+06 1949.91
515088 2.74666e+06 1950.55
515089 2.74667e+06 1944.56
515089 2.74667e+06 1943.11
515089 2.74667e+06 1943.15
515089 2.74667e+06 1945.66
515089 2.74667e+06 1943.31
515089 2.74667e+06 1943.21
515090 2.74668e+06 1943.31
515090 2.74668e+06 1943.25
515090 2.74668e+06 1943.28
515090 2.74668e+06 1943.18
515090 2.74668e+06 1943.26
515090 2.74668e+06 1944.49
515090 2.74668e+06 1943.08
515090 2.74668e+06 1943.68
515091 2.74669e+06 1943.18
515091 2.74669e+06 1943.06
515091 2.74669e+06 1943.36
515091 2.74669e+06 1945.66
515091 2.74669e+06 1943.32
515091 2.74669e+06 1944.24
515090 2.74669e+06 1943.09
515092 2.7467e+06 1947.76
515092 2.7467e+06 1948.25
515092 2.7467e+06 1947.63
515092 2.7467e+06 1947.77
515092 2.7467e+06 1947.68
515092 2.7467e+06 1947.74
515092 2.7467e+06 1947.54
515092 2.7467e+06 1947.6
515092 2.7467e+06 1947.44
515092 2.7467e+06 1947.66
515092 2.7467e+06 1947.67
515091 2.7467e+06 1947.73
515093 2.74671e+06 1948.28
515093 2.74671e+06 1947.57
515093 2.74671e+06 1947.67
515093 2.74671e+06 1947.62
515093 2.74671e+06 1953.65
515093 2.74671e+06 1947.46
515093 2.74671e+06 1947.65
515092 2.74671e+06 1947.47
515092 2.74671e+06 1947.7
515092 2.74671e+06 1954.54
515092 2.74671e+06 1947.66
515092 2.74671e+06 1947.68
515094 2.74672e+06 1943.2
515094 2.74672e+06 1943.18
515094 2.74672e+06 1945.9
515093 2.74672e+06 1944.81
515093 2.74672e+06 1943.11
515093 2.74672e+06 1943.2
515095 2.74673e+06 1943.07
515095 2.74673e+06 1943.21
515094 2.74673e+06 1944.25
515094 2.74673e+06 1943.4
515094 2.74673e+06 1943.31
515099 2.74677e+06 1944.94
515098 2.74677e+06 1946.05
515100 2.74678e+06 1941.01
515100 2.74678e+06 1940.92
515099 2.74678e+06 1940.73
515099 2.74678e+06 1940.66
515099 2.74678e+06 1940.64
515099 2.74678e+06 1940.56
515099 2.74678e+06 1940.63
515099 2.74678e+06 1941.05
515101 2.74679e+06 1940.52
515102 2.7468e+06 1941.24
515102 2.7468e+06 1941.08
515103 2.74681e+06 1942.3
515102 2.74681e+06 1941.16
515102 2.74681e+06 1945.71
515102 2.74681e+06 1943.57
515102 2.74681e+06 1941.63
515102 2.74681e+06 1941.13
515102 2.74681e+06 1941.62
515104 2.74682e+06 1941.8
515105 2.74683e+06 1941.86
515104 2.74683e+06 1942.22
515104 2.74683e+06 1941.86
515104 2.74683e+06 1941.82
515104 2.74683e+06 1941.56
515104 2.74683e+06 1942.25
515106 2.74684e+06 1942.17
515105 2.74684e+06 1941.86
515105 2.74684e+06 1943.38
515105 2.74684e+06 1941.8
515105 2.74684e+06 1942.51
515105 2.74684e+06 1941.92
515105 2.74684e+06 1941.77
515105 2.74684e+06 1941.87
515107 2.74685e+06 1941.62
515106 2.74685e+06 1941.56
515106 2.74685e+06 1944.35
515106 2.74685e+06 1941.68
515106 2.74685e+06 1941.3
515106 2.74685e+06 1941.7
515106 2.74685e+06 1943.19
515106 2.74685e+06 1941.5
515106 2.74685e+06 1942.48
515106 2.74685e+06 1941.9
515106 2.74685e+06 1941.69
515108 2.74686e+06 1941.63
515107 2.74686e+06 1943.25
515108 2.74687e+06 1943.3
515108 2.74687e+06 1943.28
515110 2.74688e+06 1942.31
515109 2.74688e+06 1941.65
515109 2.74688e+06 1942.24
515109 2.74688e+06 1943.29
515109 2.74688e+06 1941.98
515109 2.74688e+06 1941.84
515110 2.74689e+06 1942.5
515110 2.74689e+06 1942.06
515110 2.74689e+06 1942.54
515110 2.74689e+06 1942.12
515111 2.7469e+06 1942.51
515111 2.7469e+06 1944.84
515111 2.7469e+06 1945.41
515111 2.7469e+06 1942.7
515111 2.7469e+06 1941.98
515112 2.74691e+06 1943.94
515112 2.74691e+06 1944.08
515112 2.74691e+06 1943.83
515112 2.74691e+06 1944.1
515112 2.74691e+06 1942.33
515115 2.74693e+06 1967.46
515115 2.74693e+06 1968.92
515114 2.74693e+06 1970.89
515114 2.74693e+06 1968.71
515114 2.74693e+06 1969.07
515114 2.74693e+06 1968.74
515116 2.74694e+06 1975.98
515116 2.74694e+06 1969.51
515115 2.74694e+06 1967.39
515115 2.74694e+06 1967.58
515115 2.74694e+06 1968.22
515115 2.74694e+06 1967.24
515115 2.74694e+06 1968.53
515115 2.74694e+06 1967.7
515117 2.74696e+06 1944.77
515117 2.74696e+06 1944.69
515117 2.74696e+06 1943.09
515117 2.74696e+06 1944.91
515118 2.74697e+06 1945.34
515118 2.74697e+06 1945.61
515118 2.74697e+06 1945.18
515118 2.74697e+06 1945.55
515118 2.74697e+06 1944.89
515118 2.74697e+06 1944.85
515118 2.74697e+06 1944.96
515119 2.74698e+06 1948.96
515119 2.74698e+06 1948.99
515119 2.74698e+06 1947.38
515119 2.74698e+06 1955.23
515120 2.74699e+06 1954.66
515120 2.74699e+06 1954.8
515120 2.74699e+06 1954.85
515120 2.74699e+06 1954.63
515120 2.74699e+06 1950.05
515120 2.74699e+06 1947.8
515121 2.747e+06 1950.19
515121 2.747e+06 1948.18
515121 2.747e+06 1954.88
515121 2.747e+06 1955.86
515121 2.747e+06 1954.81
515120 2.747e+06 1955.96
515122 2.74701e+06 1952.02
515122 2.74701e+06 1954.66
515122 2.74701e+06 1950.11
515123 2.74702e+06 1948.4
515123 2.74702e+06 1948.48
515123 2.74702e+06 1953.98
515123 2.74702e+06 1948.35
515123 2.74702e+06 1948.74
515123 2.74702e+06 1952.72
515123 2.74702e+06 1949.31
515122 2.74702e+06 1949.31
515122 2.74702e+06 1949.25
515124 2.74703e+06 1949.04
515124 2.74703e+06 1949.06
515124 2.74703e+06 1948.91
515124 2.74703e+06 1948.47
515124 2.74703e+06 1948.6
515123 2.74703e+06 1948.64
515125 2.74704e+06 1950.2
515125 2.74704e+06 1950
515125 2.74704e+06 1949.35
515124 2.74704e+06 1950.52
515126 2.74705e+06 1949.67
515126 2.74705e+06 1949.66
515126 2.74705e+06 1950.42
515126 2.74705e+06 1949.74
515126 2.74705e+06 1951.82
515126 2.74705e+06 1950.12
515125 2.74705e+06 1950.24
515125 2.74705e+06 1950.46
515127 2.74706e+06 1950.33
515127 2.74706e+06 1954.11
515127 2.74706e+06 1950
515127 2.74706e+06 1949.43
515127 2.74706e+06 1950.03
515126 2.74706e+06 1950.49
515126 2.74706e+06 1950.43
515126 2.74706e+06 1950.08
515128 2.74707e+06 1950.04
515128 2.74707e+06 1950.11
515128 2.74707e+06 1954.74
515128 2.74707e+06 1949.83
515128 2.74707e+06 1949.93
515128 2.74707e+06 1949.8
515127 2.74707e+06 1951.36
518249 2.74628e+06 1995.98
518249 2.74628e+06 1994.99
518249 2.74628e+06 1996.81
518249 2.74628e+06 1994.47
518249 2.74628e+06 1994.53
518251 2.74629e+06 2004.82
518250 2.74629e+06 2005.23
518250 2.74629e+06 2005.15
518250 2.74629e+06 2004.68
518250 2.74629e+06 1998.14
518251 2.7463e+06 2005.43
518251 2.7463e+06 2005.49
518251 2.7463e+06 2003.7
518251 2.7463e+06 2004.98
518251 2.7463e+06 2005.05
518251 2.7463e+06 2004.92
518252 2.74631e+06 2005.03
518252 2.74631e+06 2005.28
518252 2.74631e+06 2004.93
518252 2.74631e+06 2005.05
518253 2.74632e+06 2010.06
518253 2.74632e+06 2010.01
518253 2.74632e+06 2010.08
518253 2.74632e+06 2008.45
518253 2.74632e+06 2008.35
518253 2.74632e+06 2008.13
518254 2.74633e+06 2004.91
518254 2.74633e+06 2003.8
518254 2.74633e+06 2004.63
518254 2.74633e+06 2004.87
518254 2.74633e+06 2002.07
518255 2.74634e+06 1996.31
518255 2.74634e+06 1995.3
518255 2.74634e+06 1994.34
518255 2.74634e+06 1996.25
518255 2.74634e+06 1994.07
518255 2.74634e+06 1994.27
518254 2.74634e+06 1994.54
518256 2.74635e+06 2005.65
518256 2.74635e+06 2005.34
518256 2.74635e+06 2005.51
518256 2.74635e+06 2005.41
518256 2.74635e+06 2005.43
518256 2.74635e+06 2005.45
518257 2.74636e+06 2011.04
518257 2.74636e+06 2008
518257 2.74636e+06 2008.26
518257 2.74636e+06 2007.99
518256 2.74636e+06 2008.03
518256 2.74636e+06 2008.8
518258 2.74637e+06 2010.97
518258 2.74637e+06 2010.84
518258 2.74637e+06 2011.15
518258 2.74637e+06 2010.91
518258 2.74637e+06 2011
518258 2.74637e+06 2010.98
518258 2.74637e+06 2011.03
518258 2.74637e+06 2011.1
518257 2.74637e+06 2011.01
518257 2.74637e+06 2011.06
518257 2.74637e+06 2011.15
518257 2.74637e+06 2011
518259 2.74638e+06 2008.24
518259 2.74638e+06 2008.21
518259 2.74638e+06 2013.28
518259 2.74638e+06 2009.54
518259 2.74638e+06 2010.95
518259 2.74638e+06 2011.05
518259 2.74638e+06 2011.5
518258 2.74638e+06 2010.81
518258 2.74638e+06 2008.05
518258 2.74638e+06 2008.03
518258 2.74638e+06 2011.09
518258 2.74638e+06 2011.05
518260 2.74639e+06 2007.98
518260 2.74639e+06 2011.52
518260 2.74639e+06 2008.09
518260 2.74639e+06 2011.49
518260 2.74639e+06 2014.33
518260 2.74639e+06 2008.4
518260 2.74639e+06 2008.19
518259 2.74639e+06 2011.58
518261 2.7464e+06 2011.23
518261 2.7464e+06 2011.68
518261 2.7464e+06 2011.85
518261 2.7464e+06 2011.48
518261 2.7464e+06 2011.57
518261 2.7464e+06 2011.87
518261 2.7464e+06 2011.73
518260 2.7464e+06 2011.43
518260 2.7464e+06 2011.55
518260 2.7464e+06 2014.41
518262 2.74641e+06 2011.84
518262 2.74641e+06 2008.58
518262 2.74641e+06 2008.43
518262 2.74641e+06 2008.57
518262 2.74641e+06 2011.74
518262 2.74641e+06 2008.29
518261 2.74641e+06 2008.36
518261 2.74641e+06 2008.45
518261 2.74641e+06 2008.47
518261 2.74641e+06 2011.75
518261 2.74641e+06 2011.67
518261 2.74641e+06 2011.73
518262 2.74642e+06 2008.51
518262 2.74642e+06 2011.5
518262 2.74642e+06 2011.47
518262 2.74642e+06 2008.29
518267 2.74646e+06 2012.42
518267 2.74646e+06 2016.23
518266 2.74646e+06 2010.11
518266 2.74646e+06 2015.28
518266 2.74646e+06 2012.59
518268 2.74647e+06 2010.19
518268 2.74647e+06 2010.26
518268 2.74647e+06 2010.03
518268 2.74647e+06 2010.11
518268 2.74647e+06 2011.97
518268 2.74647e+06 2010.1
518267 2.74647e+06 2012.63
518267 2.74647e+06 2010.12
518267 2.74647e+06 2011.13
518267 2.74647e+06 2010.34
518269 2.74648e+06 2009.71
518269 2.74648e+06 2011
518268 2.74648e+06 2010.54
518268 2.74648e+06 2010.98
518270 2.74649e+06 2011.02
518270 2.74649e+06 2008.63
518269 2.74649e+06 2010.9
518269 2.74649e+06 2008.46
518269 2.74649e+06 2010.99
518269 2.74649e+06 2011.04
518269 2.74649e+06 2009.69
518271 2.7465e+06 1999.45
518270 2.7465e+06 2002.5
518272 2.74651e+06 2010.1
518272 2.74651e+06 2009.84
518272 2.74651e+06 2010.07
518272 2.74651e+06 2010.13
518271 2.74651e+06 2011.39
518273 2.74652e+06 1999.65
518273 2.74652e+06 1999.45
518273 2.74652e+06 1999.73
518273 2.74652e+06 1999.33
518273 2.74652e+06 2001.23
518273 2.74652e+06 2002.97
518274 2.74653e+06 1999.79
518274 2.74653e+06 2002.09
518274 2.74653e+06 1999.7
518274 2.74653e+06 1999.8
518274 2.74653e+06 1999.84
518275 2.74654e+06 1999.92
518275 2.74654e+06 2000.2
518275 2.74654e+06 2000.95
518275 2.74654e+06 1999.76
518277 2.74656e+06 2000.11
518277 2.74656e+06 2000.34
518277 2.74656e+06 2000.29
518277 2.74656e+06 2000.72
518277 2.74656e+06 2000.4
518277 2.74656e+06 2000.35
518276 2.74656e+06 2003.19
518278 2.74657e+06 2000.15
518278 2.74657e+06 1999.84
518278 2.74657e+06 2000.16
518278 2.74657e+06 1999.94
518278 2.74657e+06 2000.6
518278 2.74657e+06 2000.18
518278 2.74657e+06 2005.36
518277 2.74657e+06 2000.15
518279 2.74658e+06 2000.52
518279 2.74658e+06 2000.05
518279 2.74658e+06 2000.07
518279 2.74658e+06 2000.26
518278 2.74658e+06 2000.2
518280 2.74659e+06 2000.08
518280 2.74659e+06 2003.21
518280 2.74659e+06 2000.99
518280 2.74659e+06 2000.6
518280 2.74659e+06 2004.04
518280 2.74659e+06 2003.93
518280 2.74659e+06 2004.28
518281 2.7466e+06 2002.46
518281 2.7466e+06 2003.58
518281 2.7466e+06 2000.65
518281 2.7466e+06 2000.56
518281 2.7466e+06 2000.52
518281 2.7466e+06 2000.85
518282 2.74661e+06 2001.92
518282 2.74661e+06 2000.88
518282 2.74661e+06 2000.76
518282 2.74661e+06 2003.51
518282 2.74661e+06 2000.89
518285 2.74664e+06 2004.55
518285 2.74664e+06 2004.56
518285 2.74664e+06 2004.27
518285 2.74664e+06 2001.6
518284 2.74664e+06 2001.44
518286 2.74665e+06 2004.6
518286 2.74665e+06 2004.58
518286 2.74665e+06 2004.64
518286 2.74665e+06 2004.41
518286 2.74665e+06 2004.04
518286 2.74665e+06 2004.49
518286 2.74665e+06 2004.47
518286 2.74665e+06 2004.61
518285 2.74665e+06 2004.35
518287 2.74666e+06 2004.56
518287 2.74666e+06 2001.59
518287 2.74666e+06 2001.37
518287 2.74666e+06 2001.54
518287 2.74666e+06 2004.55
518287 2.74666e+06 2004.7
518287 2.74666e+06 2001.4
518286 2.74666e+06 2001.56
518286 2.74666e+06 2004.38
518288 2.74667e+06 2004.06
518288 2.74667e+06 2004.14
518288 2.74667e+06 2004.08
518288 2.74667e+06 2003.79
518288 2.74667e+06 2004.05
518288 2.74667e+06 2004.4
518287 2.74667e+06 2001.76
518289 2.74668e+06 2004.05
518289 2.74668e+06 2003.94
518289 2.74668e+06 2003.99
518289 2.74668e+06 2004.19
518289 2.74668e+06 2003.9
518288 2.74668e+06 2003.73
518288 2.74668e+06 2004.05
518288 2.74668e+06 2004.07
518288 2.74668e+06 2003.97
518290 2.74669e+06 2003.96
518290 2.74669e+06 2004.01
518290 2.74669e+06 2003.91
518290 2.74669e+06 2003.97
518290 2.74669e+06 2004.14
518290 2.74669e+06 2003.95
518289 2.74669e+06 2003.86
518289 2.74669e+06 2003.91
518289 2.74669e+06 2003.93
518289 2.74669e+06 2003.99
518291 2.7467e+06 2003.23
518291 2.7467e+06 2004.21
518291 2.7467e+06 2003.44
518291 2.7467e+06 2003.98
518291 2.7467e+06 2003.97
518291 2.7467e+06 2003.99
518290 2.7467e+06 2003.96
518290 2.7467e+06 2003.98
518290 2.7467e+06 2003.94
518290 2.7467e+06 2004.05
518292 2.74671e+06 2003.26
518292 2.74671e+06 2002.79
518292 2.74671e+06 2002.29
518291 2.74671e+06 2003.88
518293 2.74672e+06 2002.86
518293 2.74672e+06 2002.8
518293 2.74672e+06 2002.48
518293 2.74672e+06 2002.39
518294 2.74673e+06 2005.87
518294 2.74673e+06 2002.6
518294 2.74673e+06 2002.69
518294 2.74673e+06 2002.81
518293 2.74673e+06 2003.13
518293 2.74673e+06 2002.59
518293 2.74673e+06 2002.77
518293 2.74673e+06 2004.93
518293 2.74673e+06 2002.41
518293 2.74673e+06 2002.79
518295 2.74674e+06 2000.36
518295 2.74674e+06 2002.78
518294 2.74674e+06 2002.8
518294 2.74674e+06 2003.3
518294 2.74674e+06 2002.78
518294 2.74674e+06 2002.79
518294 2.74674e+06 2002.74
518294 2.74674e+06 2002.73
518296 2.74675e+06 2002.79
518296 2.74675e+06 2002.4
518295 2.74675e+06 2002.91
518295 2.74675e+06 2002.5
518295 2.74675e+06 2002.73
518295 2.74675e+06 2002.61
518295 2.74675e+06 2002.9
518297 2.74676e+06 2002.32
518297 2.74676e+06 2002.73
518298 2.74677e+06 2002.01
518298 2.74677e+06 2002.07
518298 2.74677e+06 2002.48
518297 2.74677e+06 2002.26
518297 2.74677e+06 2002.11
518297 2.74677e+06 2002.38
518299 2.74678e+06 2003.75
518299 2.74678e+06 2002.12
518300 2.74679e+06 2000.2
518300 2.74679e+06 2000.75
518299 2.74679e+06 2000.89
518299 2.74679e+06 2002.17
518299 2.74679e+06 2001.98
518299 2.74679e+06 2000.84
518299 2.74679e+06 2000.57
518299 2.74679e+06 2003.09
518301 2.7468e+06 2000.62
518301 2.74681e+06 1999.09
518301 2.74681e+06 2000.26
518301 2.74681e+06 2000.3
518301 2.74681e+06 2000.8
518301 2.74681e+06 2000.5
518301 2.74681e+06 2000.05
518301 2.74681e+06 2003.52
518302 2.74682e+06 1999.87
518302 2.74682e+06 1999.97
518302 2.74682e+06 1999.92
518302 2.74682e+06 2000.15
518304 2.74683e+06 1999.94
518304 2.74684e+06 1999.28
518304 2.74684e+06 1999.67
518304 2.74684e+06 1999.49
518304 2.74684e+06 1998.96
518304 2.74684e+06 2000.33
518304 2.74684e+06 1999.7
518304 2.74684e+06 1999.33
518306 2.74685e+06 1999.8
518305 2.74685e+06 2000.63
518306 2.74686e+06 2004.48
518308 2.74688e+06 1999.19
518308 2.74688e+06 2000.12
518308 2.74688e+06 1999.02
518308 2.74688e+06 1999.31
518308 2.74688e+06 1999.99
518308 2.74688e+06 1999.53
518310 2.74689e+06 2000.69
518309 2.74689e+06 1999.99
518309 2.74689e+06 2000.41
518309 2.74689e+06 2000.56
518311 2.7469e+06 2000.21
518310 2.7469e+06 2000.57
518310 2.7469e+06 2000.35
518310 2.7469e+06 2000.48
518310 2.7469e+06 2000.62
518311 2.74691e+06 2001.44
518311 2.74691e+06 2000.8
518312 2.74692e+06 2000.9
518312 2.74692e+06 2001.1
518312 2.74692e+06 2001.52
518314 2.74693e+06 2000.54
518314 2.74693e+06 2000.62
518314 2.74693e+06 2001.23
518315 2.74694e+06 2000.28
518315 2.74694e+06 2000.67
518314 2.74694e+06 2000.82
518314 2.74694e+06 2001
518314 2.74694e+06 2000.47
518314 2.74694e+06 2001.29
518314 2.74694e+06 2000.61
518314 2.74694e+06 2001.52
518314 2.74694e+06 2001.26
518316 2.74695e+06 2000.34
518316 2.74695e+06 2003.81
518315 2.74695e+06 2000.67
518315 2.74695e+06 2000.7
518317 2.74696e+06 2001.9
518316 2.74696e+06 2000.31
518316 2.74696e+06 2000.27
518316 2.74696e+06 2000.69
518316 2.74696e+06 2000.39
518318 2.74697e+06 2000.35
518318 2.74697e+06 2004.48
518318 2.74697e+06 2000.7
518317 2.74697e+06 2000.61
518317 2.74697e+06 2000.58
518317 2.74697e+06 2005.35
518319 2.74698e+06 1999.78
518318 2.74698e+06 2000.01
518325 2.74705e+06 1996.13
518325 2.74705e+06 1996.07
518325 2.74705e+06 1996.58
518325 2.74705e+06 1996.21
518327 2.74706e+06 1995
518326 2.74706e+06 1995.65
518326 2.74706e+06 1996.12
518326 2.74706e+06 1996.11
518326 2.74706e+06 1996.59
518327 2.74707e+06 1994.77
518327 2.74707e+06 1993.36
518327 2.74707e+06 1996.38
518327 2.74707e+06 1995.21
518327 2.74707e+06 1995.26
518327 2.74707e+06 1995.04
518327 2.74707e+06 1995.6
515128 2.74707e+06 1950.04
515128 2.74707e+06 1950.11
515128 2.74707e+06 1954.74
515128 2.74707e+06 1949.83
515128 2.74707e+06 1949.93
515128 2.74707e+06 1949.8
515127 2.74707e+06 1951.36
515129 2.74708e+06 1950.29
515129 2.74708e+06 1955.72
515129 2.74708e+06 1950.12
515128 2.74708e+06 1950.41
515130 2.74709e+06 1959.47
515130 2.74709e+06 1961.29
515130 2.74709e+06 1961.26
515130 2.74709e+06 1961.17
515130 2.74709e+06 1959.45
515130 2.74709e+06 1961.04
515129 2.74709e+06 1960.88
515131 2.7471e+06 1961.42
515131 2.7471e+06 1961.27
515131 2.7471e+06 1961.7
515131 2.7471e+06 1962.4
515130 2.7471e+06 1961.97
515130 2.7471e+06 1961.09
515130 2.7471e+06 1962.6
515130 2.7471e+06 1963.05
515132 2.74711e+06 1953.62
515132 2.74711e+06 1950.96
515131 2.74711e+06 1952.56
515131 2.74711e+06 1953.7
515131 2.74711e+06 1950.86
515133 2.74712e+06 1954.66
515133 2.74712e+06 1951.36
515132 2.74712e+06 1954.48
515132 2.74712e+06 1954.2
515132 2.74712e+06 1951.87
515132 2.74712e+06 1954.13
515134 2.74713e+06 1955.19
515134 2.74713e+06 1954.54
515133 2.74713e+06 1955.86
515133 2.74713e+06 1954.69
515133 2.74713e+06 1955.21
515133 2.74713e+06 1955.07
515135 2.74714e+06 1954.56
515134 2.74714e+06 1955.31
515134 2.74714e+06 1955.26
515134 2.74714e+06 1954.49
515134 2.74714e+06 1954.8
515137 2.74716e+06 1962.92
515137 2.74716e+06 1963.43
515136 2.74716e+06 1961.14
515138 2.74717e+06 1965.91
515138 2.74717e+06 1965.69
515138 2.74717e+06 1965.28
515138 2.74717e+06 1965.57
515137 2.74717e+06 1965.54
515137 2.74717e+06 1964.53
515137 2.74717e+06 1964.68
515137 2.74717e+06 1965.51
515140 2.74719e+06 1968.66
515140 2.74719e+06 1969.53
515140 2.74719e+06 1968.61
515139 2.74719e+06 1970.09
515139 2.74719e+06 1968.75
515139 2.74719e+06 1970.65
515139 2.74719e+06 1968.61
515141 2.7472e+06 1970.11
515141 2.7472e+06 1972.66
515140 2.7472e+06 1975.47
515140 2.7472e+06 1970.76
515140 2.7472e+06 1969.19
515140 2.7472e+06 1969.52
515142 2.74721e+06 1972.78
515142 2.74721e+06 1971.17
515141 2.74721e+06 1973.17
515141 2.74721e+06 1971.99
515141 2.74721e+06 1972.99
515141 2.74721e+06 1971.7
515141 2.74721e+06 1969.6
515141 2.74721e+06 1970.87
515143 2.74722e+06 1971.68
515143 2.74722e+06 1972.87
515142 2.74722e+06 1971.86
515142 2.74722e+06 1972.83
515142 2.74722e+06 1972.87
515142 2.74722e+06 1972.72
515142 2.74722e+06 1971.5
515142 2.74722e+06 1972.3
515144 2.74723e+06 1975.99
515144 2.74723e+06 1975.42
515144 2.74723e+06 1976.05
515143 2.74723e+06 1975.83
515143 2.74723e+06 1975.96
515143 2.74723e+06 1972.41
515143 2.74723e+06 1974.03
515143 2.74723e+06 1974.08
515145 2.74724e+06 1975.62
515145 2.74724e+06 1975.6
515145 2.74724e+06 1975.88
515145 2.74724e+06 1975.87
515144 2.74724e+06 1976
515144 2.74724e+06 1976.05
515144 2.74724e+06 1975.98
515144 2.74724e+06 1975.8
515144 2.74724e+06 1975.94
515146 2.74725e+06 1976.01
515146 2.74725e+06 1975.51
515145 2.74725e+06 1975.82
515145 2.74725e+06 1975.86
515145 2.74725e+06 1975.97
515145 2.74725e+06 1975.9
515146 2.74726e+06 1975.82
515146 2.74726e+06 1975.83
515146 2.74726e+06 1975.77
515146 2.74726e+06 1975.72
515147 2.74727e+06 1975.83
515147 2.74727e+06 1975.02
515148 2.74728e+06 1975.7
515148 2.74728e+06 1975.98
515148 2.74728e+06 1975.53
515148 2.74728e+06 1975.11
515148 2.74728e+06 1975.86
515149 2.74729e+06 1973.36
515149 2.74729e+06 1972.93
515149 2.74729e+06 1972.78
515149 2.74729e+06 1974.52
515149 2.74729e+06 1975.84
515151 2.7473e+06 1981.87
515151 2.7473e+06 1982.35
515150 2.7473e+06 1983.82
515150 2.7473e+06 1982.5
515150 2.7473e+06 1980.95
515150 2.7473e+06 1981.98
515150 2.7473e+06 1983.16
515150 2.7473e+06 1982.82
515150 2.7473e+06 1981.37
515152 2.74731e+06 1980.4
515151 2.74731e+06 1985.83
515151 2.74731e+06 1983.59
515151 2.74731e+06 1982.29
515151 2.74731e+06 1982.21
515151 2.74731e+06 1981.54
515151 2.74731e+06 1982.6
515151 2.74731e+06 1981.62
515151 2.74731e+06 1984.82
515151 2.74731e+06 1982.28
515153 2.74732e+06 1993.39
515152 2.74732e+06 1992.57
515152 2.74732e+06 1993.49
515152 2.74732e+06 1994.25
515152 2.74732e+06 1993.3
515152 2.74732e+06 1992.34
515152 2.74732e+06 1993.17
515152 2.74732e+06 1994.24
515155 2.74735e+06 1977.6
515155 2.74735e+06 1977.92
515155 2.74735e+06 1977.74
515155 2.74735e+06 1977.61
515155 2.74735e+06 1977.7
515155 2.74735e+06 1977.78
515156 2.74736e+06 1977.25
515156 2.74736e+06 1977.71
515156 2.74736e+06 1977.77
515156 2.74736e+06 1978.38
515155 2.74736e+06 1977.76
515158 2.74738e+06 1975.17
515158 2.74738e+06 1975.35
515158 2.74738e+06 1975.81
515158 2.74738e+06 1975.57
515157 2.74738e+06 1975.79
515159 2.74739e+06 1974.38
515159 2.74739e+06 1973.67
515159 2.74739e+06 1974.05
515159 2.74739e+06 1974.4
515159 2.74739e+06 1974.35
515158 2.74739e+06 1974.4
515158 2.74739e+06 1974.73
515158 2.74739e+06 1974.14
515160 2.7474e+06 1974.59
515160 2.7474e+06 1972.36
515160 2.7474e+06 1972.49
515160 2.7474e+06 1972.61
515160 2.7474e+06 1972.72
515160 2.7474e+06 1974.33
515160 2.7474e+06 1973.25
515159 2.7474e+06 1973.66
515161 2.74741e+06 1970.52
515161 2.74741e+06 1969.06
515161 2.74741e+06 1971.08
515161 2.74741e+06 1969.95
515160 2.74741e+06 1971.6
515160 2.74741e+06 1973.18
515162 2.74742e+06 1968.88
515162 2.74742e+06 1971.78
515161 2.74742e+06 1968.82
515161 2.74742e+06 1969.05
515161 2.74742e+06 1974.29
515164 2.74744e+06 1962.62
515164 2.74744e+06 1963.43
515163 2.74744e+06 1964.72
515163 2.74744e+06 1964.42
515163 2.74744e+06 1963.23
515163 2.74744e+06 1962.86
515165 2.74745e+06 1960.32
515165 2.74745e+06 1961.54
515164 2.74745e+06 1961.71
515164 2.74745e+06 1961.78
515164 2.74745e+06 1962.79
515164 2.74745e+06 1961.37
515166 2.74746e+06 1959.2
515166 2.74746e+06 1959.01
515165 2.74746e+06 1959.93
515165 2.74746e+06 1961.77
515165 2.74746e+06 1959.54
515165 2.74746e+06 1960.2
515165 2.74746e+06 1959.95
515170 2.74751e+06 1950.56
515170 2.74751e+06 1950.02
515170 2.74751e+06 1949.94
515170 2.74751e+06 1950.86
515170 2.74751e+06 1950.89
515170 2.74751e+06 1951.13
515170 2.74751e+06 1950.61
515170 2.74751e+06 1950.57
515170 2.74751e+06 1950.83
515170 2.74751e+06 1951.84
515173 2.74754e+06 1953.33
515173 2.74754e+06 1951.04
515173 2.74754e+06 1953.87
515173 2.74754e+06 1951.29
515173 2.74754e+06 1950.4
515173 2.74754e+06 1954
515173 2.74754e+06 1951.27
515174 2.74755e+06 1953.3
515174 2.74755e+06 1954.32
515174 2.74755e+06 1953.31
515174 2.74755e+06 1954.6
515174 2.74755e+06 1953.08
515174 2.74755e+06 1952.14
515174 2.74755e+06 1955.69
515175 2.74756e+06 1953.41
515175 2.74756e+06 1952.22
515175 2.74756e+06 1953.5
515175 2.74756e+06 1954.14
515175 2.74756e+06 1954.75
515176 2.74757e+06 1952.54
515176 2.74757e+06 1952.99
515176 2.74757e+06 1953.07
515176 2.74757e+06 1953.35
515176 2.74757e+06 1953.18
515176 2.74757e+06 1953.02
515176 2.74757e+06 1953.58
515177 2.74758e+06 1952.03
515177 2.74758e+06 1953.91
515177 2.74758e+06 1952.44
515177 2.74758e+06 1950.31
515177 2.74758e+06 1951.83
515177 2.74758e+06 1951.51
515177 2.74758e+06 1953.02
515177 2.74758e+06 1951.85
515178 2.74759e+06 1945.81
515178 2.74759e+06 1945.98
515180 2.74761e+06 1938.89
515180 2.74761e+06 1939.2
515180 2.74761e+06 1943.28
515180 2.74761e+06 1941.76
515180 2.74761e+06 1940.14
515181 2.74762e+06 1941.48
515181 2.74762e+06 1939.71
515181 2.74762e+06 1940.25
515181 2.74762e+06 1939.38
515180 2.74762e+06 1940.17
515182 2.74763e+06 1944.47
515182 2.74763e+06 1937.18
515182 2.74763e+06 1945.45
515182 2.74763e+06 1943.97
515182 2.74763e+06 1945.31
515182 2.74763e+06 1941.91
515181 2.74763e+06 1941.32
515183 2.74764e+06 1937.21
515183 2.74764e+06 1939.34
515183 2.74764e+06 1939.7
515183 2.74764e+06 1939.59
515183 2.74764e+06 1939.57
515183 2.74764e+06 1941.92
515183 2.74764e+06 1937.57
515182 2.74764e+06 1939.64
515182 2.74764e+06 1943.57
515182 2.74764e+06 1939.5
515186 2.74767e+06 1935.51
515186 2.74767e+06 1935.64
515186 2.74767e+06 1935.62
515186 2.74767e+06 1935.5
515186 2.74767e+06 1935.61
515186 2.74767e+06 1935.74
515185 2.74767e+06 1935.89
515185 2.74767e+06 1935.78
515187 2.74768e+06 1935.02
515187 2.74768e+06 1935.33
515187 2.74768e+06 1935.62
515187 2.74768e+06 1936.08
515187 2.74768e+06 1935.3
515186 2.74768e+06 1934.96
515188 2.74769e+06 1934.93
515187 2.74769e+06 1934.78
515187 2.74769e+06 1935.01
515187 2.74769e+06 1934.65
515189 2.7477e+06 1941.01
515189 2.7477e+06 1944.26
515189 2.7477e+06 1944.06
515189 2.7477e+06 1938.55
515190 2.74771e+06 1943.47
515190 2.74771e+06 1940.07
515190 2.74771e+06 1937.79
515190 2.74771e+06 1939.8
515189 2.74771e+06 1937.55
515189 2.74771e+06 1940.42
515189 2.74771e+06 1940.25
515191 2.74772e+06 1932.39
515191 2.74772e+06 1935.57
515191 2.74772e+06 1934.11
515190 2.74772e+06 1934.31
515192 2.74773e+06 1932.66
515192 2.74773e+06 1931.24
515192 2.74773e+06 1933.05
515192 2.74773e+06 1931.7
515191 2.74773e+06 1935.55
515191 2.74773e+06 1931.49
515191 2.74773e+06 1932.38
515191 2.74773e+06 1930
515193 2.74774e+06 1935.16
515193 2.74774e+06 1932.64
515192 2.74774e+06 1930.09
515192 2.74774e+06 1933.97
515192 2.74774e+06 1930.56
515192 2.74774e+06 1931.04
515194 2.74775e+06 1934.93
515194 2.74775e+06 1934.76
515194 2.74775e+06 1935.28
515193 2.74775e+06 1932.47
515193 2.74775e+06 1934.93
515193 2.74775e+06 1932.99
515193 2.74775e+06 1933.59
515193 2.74775e+06 1934.15
515193 2.74775e+06 1936.02
515195 2.74776e+06 1935.81
515195 2.74776e+06 1932.86
515195 2.74776e+06 1934.66
515194 2.74776e+06 1933
515194 2.74776e+06 1935.94
515194 2.74776e+06 1935.39
515194 2.74776e+06 1933.88
515194 2.74776e+06 1928.66
515194 2.74776e+06 1932.98
515198 2.74779e+06 1934.47
515198 2.74779e+06 1934.86
515197 2.74779e+06 1935.94
515197 2.74779e+06 1935.09
515197 2.74779e+06 1935.69
515197 2.74779e+06 1935.14
515198 2.7478e+06 1933.68
515198 2.7478e+06 1930.66
515198 2.7478e+06 1934.51
515198 2.7478e+06 1930.7
515198 2.7478e+06 1932.54
515198 2.7478e+06 1935.99
515198 2.7478e+06 1933.46
515199 2.74781e+06 1929.91
515199 2.74781e+06 1931.29
515199 2.74781e+06 1929.89
515199 2.74781e+06 1933.63
515199 2.74781e+06 1934.15
515199 2.74781e+06 1928.81
515199 2.74781e+06 1931.14
515199 2.74781e+06 1933.96
515199 2.74781e+06 1930.02
515200 2.74782e+06 1918.16
515200 2.74782e+06 1920.24
515200 2.74782e+06 1923.16
515200 2.74782e+06 1920.26
515200 2.74782e+06 1920.35
515200 2.74782e+06 1924.47
515200 2.74782e+06 1920.25
515201 2.74783e+06 1918.19
515201 2.74783e+06 1920.32
515201 2.74783e+06 1921.58
515201 2.74783e+06 1924.3
515201 2.74783e+06 1922.34
515201 2.74783e+06 1922.37
515201 2.74783e+06 1921.46
515202 2.74784e+06 1915.73
515202 2.74784e+06 1915.87
515202 2.74784e+06 1913.38
515202 2.74784e+06 1915.46
515203 2.74785e+06 1915.68
515203 2.74785e+06 1915.7
515203 2.74785e+06 1915.36
515203 2.74785e+06 1915.61
515203 2.74785e+06 1915.49
515203 2.74785e+06 1915.8
515202 2.74785e+06 1915.57
515203 2.74786e+06 1915.45
515203 2.74786e+06 1915.63
515203 2.74786e+06 1915.91
515203 2.74786e+06 1915.9
515205 2.74787e+06 1915.45
515205 2.74787e+06 1915.53
515205 2.74787e+06 1915.72
515205 2.74787e+06 1915.77
515205 2.74787e+06 1915.82
515204 2.74787e+06 1915.86
515204 2.74787e+06 1915.71
518327 2.74707e+06 1994.77
518327 2.74707e+06 1993.36
518327 2.74707e+06 1996.38
518327 2.74707e+06 1995.21
518327 2.74707e+06 1995.26
518327 2.74707e+06 1995.04
518327 2.74707e+06 1995.6
518328 2.74708e+06 1993
518328 2.74708e+06 1993.33
518328 2.74708e+06 1993.37
518328 2.74708e+06 1995.32
518328 2.74708e+06 1993.48
518329 2.74709e+06 1992.56
518329 2.74709e+06 1992.33
518329 2.74709e+06 1993.02
518329 2.74709e+06 1992.01
518333 2.74713e+06 1994.99
518333 2.74713e+06 1994.72
518333 2.74713e+06 1995.2
518332 2.74713e+06 1994.63
518334 2.74714e+06 1994.9
518334 2.74714e+06 1994.93
518334 2.74714e+06 1994.79
518334 2.74714e+06 1994.89
518334 2.74714e+06 1994.82
518333 2.74714e+06 1995.05
518335 2.74715e+06 1991.63
518335 2.74715e+06 1993.04
518335 2.74715e+06 1991.4
518334 2.74715e+06 1994.51
518336 2.74716e+06 1991.6
518337 2.74717e+06 1991.39
518337 2.74717e+06 1991.6
518337 2.74717e+06 1991.37
518337 2.74717e+06 1991.75
518336 2.74717e+06 1991.33
518338 2.74718e+06 1991.12
518338 2.74718e+06 1991.68
518337 2.74718e+06 1990.12
518339 2.74719e+06 1992.63
518339 2.74719e+06 1994.6
518339 2.74719e+06 1993.18
518339 2.74719e+06 1996.67
518338 2.74719e+06 1994.3
518338 2.74719e+06 1994.44
518338 2.74719e+06 1990.69
518341 2.74721e+06 1994.51
518340 2.74721e+06 1994.51
518340 2.74721e+06 1995.04
518340 2.74721e+06 1994.52
518340 2.74721e+06 1994.93
518342 2.74722e+06 1994.13
518342 2.74722e+06 1994.64
518341 2.74722e+06 1994.15
518341 2.74722e+06 1994.53
518341 2.74722e+06 1994.02
518341 2.74722e+06 1994.36
518341 2.74722e+06 1994.17
518341 2.74722e+06 1994.08
518343 2.74723e+06 1994.41
518342 2.74723e+06 1994.39
518342 2.74723e+06 1994.19
518342 2.74723e+06 1994.51
518342 2.74723e+06 1994.46
518342 2.74723e+06 1993.92
518344 2.74724e+06 1994.23
518343 2.74724e+06 1994.32
518343 2.74724e+06 1995.5
518343 2.74724e+06 1994
518343 2.74724e+06 1994.17
518343 2.74724e+06 1994.13
518345 2.74725e+06 1995.49
518344 2.74725e+06 1994.27
518344 2.74725e+06 1994.14
518344 2.74725e+06 1994.19
518344 2.74725e+06 1994.26
518345 2.74726e+06 1993.94
518345 2.74726e+06 1994.36
518345 2.74726e+06 1994.81
518345 2.74726e+06 1994.04
518345 2.74726e+06 1994.31
518345 2.74726e+06 1994.15
518346 2.74727e+06 1994.15
518346 2.74727e+06 1994.78
518346 2.74727e+06 1994.12
518347 2.74728e+06 1993.72
518347 2.74728e+06 1993.92
518347 2.74728e+06 1993.89
518347 2.74728e+06 1993.91
518349 2.7473e+06 1993.44
518349 2.7473e+06 1993.43
518349 2.7473e+06 1993.1
518349 2.7473e+06 1993.63
518350 2.74731e+06 1993.62
518350 2.74731e+06 1993.57
518350 2.74731e+06 1994.82
518350 2.74731e+06 1993.19
518349 2.74731e+06 1993.7
518351 2.74732e+06 1990.11
518351 2.74732e+06 1993.91
518351 2.74732e+06 1993.55
518350 2.74732e+06 1993.33
518350 2.74732e+06 1993.91
518352 2.74733e+06 1994.03
518352 2.74733e+06 1993.7
518353 2.74734e+06 1994.21
518353 2.74734e+06 1994.62
518353 2.74734e+06 1993.68
518352 2.74734e+06 1993.98
518354 2.74735e+06 1994.51
518353 2.74735e+06 1993.85
518354 2.74736e+06 1993.81
518354 2.74736e+06 1993.94
518354 2.74736e+06 1994.28
518356 2.74737e+06 1993.81
518356 2.74737e+06 1994.58
518356 2.74737e+06 1993.77
518356 2.74737e+06 1993.71
518355 2.74737e+06 1993.61
518355 2.74737e+06 1993.85
518355 2.74737e+06 1993.84
518357 2.74738e+06 1993.98
518356 2.74738e+06 1994.33
518356 2.74738e+06 1993.81
518356 2.74738e+06 1994.02
518358 2.74739e+06 1993.75
518357 2.74739e+06 1993.9
518357 2.74739e+06 1993.86
518359 2.7474e+06 1993.83
518359 2.7474e+06 1994.13
518359 2.7474e+06 1994.06
518358 2.7474e+06 1993.89
518358 2.7474e+06 1994.06
518358 2.7474e+06 1993.91
518358 2.7474e+06 1994.29
518358 2.7474e+06 1993.88
518360 2.74741e+06 1994.16
518360 2.74741e+06 1993.75
518360 2.74741e+06 1993.68
518359 2.74741e+06 1993.81
518359 2.74741e+06 1993.47
518359 2.74741e+06 1994.13
518359 2.74741e+06 1993.8
518359 2.74741e+06 1993.72
518359 2.74741e+06 1993.66
518360 2.74742e+06 1993.87
518360 2.74742e+06 1994.06
518360 2.74742e+06 1993.79
518360 2.74742e+06 1993.54
518360 2.74742e+06 1993.92
518360 2.74742e+06 1993.93
518362 2.74743e+06 1993.79
518361 2.74743e+06 1993.83
518361 2.74743e+06 1993.95
518361 2.74743e+06 1993.71
518361 2.74743e+06 1994.18
518361 2.74743e+06 1993.73
518361 2.74743e+06 1994.12
518361 2.74743e+06 1993.74
518361 2.74743e+06 1993.79
518363 2.74744e+06 1994.71
518363 2.74744e+06 1993.77
518362 2.74744e+06 1994.07
518362 2.74744e+06 1993.64
518362 2.74744e+06 1993.94
518362 2.74744e+06 1993.82
518362 2.74744e+06 1993.9
518362 2.74744e+06 1993.6
518362 2.74744e+06 1993.51
518364 2.74745e+06 1996.6
518364 2.74745e+06 1994.36
518363 2.74745e+06 1994.14
518363 2.74745e+06 1993.75
518363 2.74745e+06 1993.89
518363 2.74745e+06 1994.1
518364 2.74746e+06 1995.66
518364 2.74746e+06 1994.78
518366 2.74747e+06 1995.56
518365 2.74747e+06 1995.99
518365 2.74747e+06 1996.44
518365 2.74747e+06 1996
518365 2.74747e+06 1995.13
518365 2.74747e+06 1994.84
518365 2.74747e+06 1996.61
518365 2.74747e+06 1995.12
518366 2.74748e+06 1995.56
518366 2.74748e+06 1996.51
518366 2.74748e+06 1996.52
518366 2.74748e+06 1995.7
518366 2.74748e+06 1996.06
518366 2.74748e+06 1996.05
518368 2.74749e+06 1996.78
518367 2.74749e+06 1996.04
518367 2.74749e+06 1996.26
518367 2.74749e+06 1996.33
518367 2.74749e+06 1996.81
518367 2.74749e+06 1996.17
518367 2.74749e+06 1996.54
518374 2.74755e+06 1998.13
518375 2.74756e+06 1998.05
518374 2.74756e+06 1998.13
518374 2.74756e+06 1998.09
518374 2.74756e+06 1998.06
518374 2.74756e+06 1998.07
518374 2.74756e+06 1998.03
518376 2.74757e+06 1998.2
518376 2.74758e+06 2002.29
518380 2.74762e+06 1994.41
518380 2.74762e+06 1993.11
518380 2.74762e+06 1991.26
518380 2.74762e+06 1993.79
518381 2.74763e+06 1994.39
518381 2.74763e+06 1992.78
518381 2.74763e+06 1994.03
518381 2.74763e+06 1991.4
518381 2.74763e+06 1992.51
518382 2.74764e+06 1993.48
518382 2.74764e+06 1996.11
518382 2.74764e+06 1992.79
518382 2.74764e+06 1994.96
518382 2.74764e+06 1992.8
518383 2.74765e+06 1993.69
518383 2.74765e+06 1993.74
518383 2.74765e+06 1990.83
518383 2.74765e+06 1990.95
518384 2.74766e+06 1992.34
518384 2.74766e+06 1992.27
518384 2.74766e+06 1992.13
518384 2.74766e+06 1992.95
518384 2.74766e+06 1992.38
518383 2.74766e+06 1993.72
518385 2.74767e+06 1994.71
518385 2.74767e+06 1996.38
518385 2.74767e+06 1992.34
518384 2.74767e+06 1992.39
518386 2.74768e+06 1992.54
518386 2.74768e+06 1992.4
518386 2.74768e+06 1992.46
518386 2.74768e+06 1992.51
518386 2.74768e+06 1992.53
518386 2.74768e+06 1992.41
518385 2.74768e+06 1992.44
518387 2.74769e+06 1992.42
518387 2.74769e+06 1992.52
518387 2.74769e+06 1992.43
518388 2.7477e+06 1992.53
518388 2.7477e+06 1992.55
518388 2.7477e+06 1992.45
518387 2.7477e+06 1994.71
518389 2.74771e+06 1992.42
518389 2.74771e+06 1992.4
518389 2.74771e+06 1992.1
518388 2.74771e+06 1992.91
518388 2.74771e+06 1992.34
518389 2.74772e+06 1992.66
518391 2.74773e+06 1995.46
518391 2.74773e+06 1991.2
518391 2.74773e+06 1991.14
518391 2.74773e+06 1990.89
518391 2.74773e+06 1991.1
518390 2.74773e+06 1991.21
518390 2.74773e+06 1991.27
518390 2.74773e+06 1991.19
518390 2.74773e+06 1991.35
518391 2.74774e+06 1991.57
518391 2.74774e+06 1993.23
518393 2.74775e+06 1991.21
518393 2.74775e+06 1991.23
518393 2.74775e+06 1991.26
518393 2.74775e+06 1993.04
518392 2.74775e+06 1991.24
518394 2.74776e+06 1991.22
518394 2.74776e+06 1991.2
518394 2.74776e+06 1995.71
518394 2.74776e+06 1991.1
518395 2.74777e+06 1991.17
518395 2.74777e+06 1991.12
518396 2.74778e+06 1991.13
518396 2.74778e+06 1991.3
518396 2.74778e+06 1991.12
518395 2.74778e+06 1991.12
518395 2.74778e+06 1991.32
518395 2.74778e+06 1991.19
518396 2.74779e+06 1991.23
518396 2.74779e+06 1991.18
518396 2.74779e+06 1991.21
518404 2.74787e+06 1991.91
518404 2.74787e+06 1992.03
515205 2.74787e+06 1915.45
515205 2.74787e+06 1915.53
515205 2.74787e+06 1915.72
515205 2.74787e+06 1915.77
515205 2.74787e+06 1915.82
515204 2.74787e+06 1915.86
515204 2.74787e+06 1915.71
515206 2.74788e+06 1915.43
515206 2.74788e+06 1915.59
515206 2.74788e+06 1915.39
515205 2.74788e+06 1915.34
515205 2.74788e+06 1915.05
515205 2.74788e+06 1915.4
515205 2.74788e+06 1915.22
515207 2.74789e+06 1915.58
515207 2.74789e+06 1915.37
515207 2.74789e+06 1915.75
515207 2.74789e+06 1915.55
515206 2.74789e+06 1915.59
515206 2.74789e+06 1915.5
515208 2.7479e+06 1915.67
515208 2.7479e+06 1915.56
515208 2.7479e+06 1915.8
515208 2.7479e+06 1915.59
515208 2.7479e+06 1915.95
515207 2.7479e+06 1915.63
515209 2.74791e+06 1914.17
515209 2.74791e+06 1915.98
515209 2.74791e+06 1915.9
515209 2.74791e+06 1915.68
515208 2.74791e+06 1915.64
515208 2.74791e+06 1915.83
515208 2.74791e+06 1915.76
515210 2.74792e+06 1910.51
515209 2.74792e+06 1915.69
515209 2.74792e+06 1915.96
515213 2.74795e+06 1937.19
515213 2.74795e+06 1937.21
515213 2.74795e+06 1937.17
515220 2.74802e+06 1922.75
515220 2.74802e+06 1917.98
515220 2.74802e+06 1917.76
515219 2.74802e+06 1921.22
515219 2.74802e+06 1919.6
515221 2.74803e+06 1925.97
515221 2.74803e+06 1924.73
515220 2.74803e+06 1925.5
515220 2.74803e+06 1925.78
515220 2.74803e+06 1920.96
515220 2.74803e+06 1922.57
515220 2.74803e+06 1917.64
515220 2.74803e+06 1922.77
515222 2.74804e+06 1922.77
515222 2.74804e+06 1921.8
515222 2.74804e+06 1924.96
515221 2.74804e+06 1917.56
515221 2.74804e+06 1922.65
515221 2.74804e+06 1920.76
515221 2.74804e+06 1923.32
515221 2.74804e+06 1925.58
515221 2.74804e+06 1920.35
515221 2.74804e+06 1923.74
515221 2.74804e+06 1917.72
515222 2.74805e+06 1925.89
515222 2.74805e+06 1924.08
515222 2.74805e+06 1922.71
515222 2.74805e+06 1923.19
515222 2.74805e+06 1922.95
515222 2.74805e+06 1923.55
515224 2.74806e+06 1923.7
515224 2.74806e+06 1923.19
515223 2.74806e+06 1925.27
515224 2.74807e+06 1923.04
515224 2.74807e+06 1923.41
515224 2.74807e+06 1923.1
515224 2.74807e+06 1923.17
515224 2.74807e+06 1923.08
515224 2.74807e+06 1924.09
515224 2.74807e+06 1922.76
515225 2.74808e+06 1924.23
515225 2.74808e+06 1924.56
515225 2.74808e+06 1925.9
515226 2.74809e+06 1923.81
515226 2.74809e+06 1924.78
515226 2.74809e+06 1922.34
515226 2.74809e+06 1924.01
515227 2.7481e+06 1922.15
515227 2.7481e+06 1924.73
515227 2.7481e+06 1925.61
515227 2.7481e+06 1924.36
515227 2.7481e+06 1925.07
515228 2.74811e+06 1925.42
515228 2.74811e+06 1924.94
515228 2.74811e+06 1921.56
515228 2.74811e+06 1924.92
515228 2.74811e+06 1924.78
515228 2.74811e+06 1921.72
515228 2.74811e+06 1923.55
515228 2.74811e+06 1921.94
515229 2.74812e+06 1925.39
515229 2.74812e+06 1925.38
515229 2.74812e+06 1925.16
515229 2.74812e+06 1924.38
515230 2.74813e+06 1925.2
515230 2.74813e+06 1925.23
515230 2.74813e+06 1925.39
515230 2.74813e+06 1925.1
515229 2.74813e+06 1924.35
515229 2.74813e+06 1925.22
515229 2.74813e+06 1925.07
515231 2.74814e+06 1923.86
515230 2.74814e+06 1925.82
515230 2.74814e+06 1924.75
515230 2.74814e+06 1924.41
515230 2.74814e+06 1925.38
515232 2.74815e+06 1924.51
515232 2.74815e+06 1925.16
515232 2.74815e+06 1925.37
515232 2.74815e+06 1924.29
515231 2.74815e+06 1922.21
515231 2.74815e+06 1925.93
515231 2.74815e+06 1924.23
515231 2.74815e+06 1925.7
515233 2.74816e+06 1924.51
515233 2.74816e+06 1924.63
515233 2.74816e+06 1924.45
515232 2.74816e+06 1925.8
515232 2.74816e+06 1925.66
515232 2.74816e+06 1918.44
515232 2.74816e+06 1925.74
515234 2.74817e+06 1924.95
515234 2.74817e+06 1924.02
515234 2.74817e+06 1924.92
515234 2.74817e+06 1925.21
515233 2.74817e+06 1925.21
515233 2.74817e+06 1924.9
515233 2.74817e+06 1925.58
515233 2.74817e+06 1925.48
515235 2.74818e+06 1922.44
515235 2.74818e+06 1924.81
515234 2.74818e+06 1924.54
515234 2.74818e+06 1923.73
515234 2.74818e+06 1924.86
515238 2.74821e+06 1921.22
515238 2.74821e+06 1922.19
515237 2.74821e+06 1921.84
515237 2.74821e+06 1922.14
515237 2.74821e+06 1924.03
515237 2.74821e+06 1921.57
515237 2.74821e+06 1922.44
515239 2.74822e+06 1921.34
515238 2.74822e+06 1921.55
515238 2.74822e+06 1921.18
515238 2.74822e+06 1921.25
515238 2.74822e+06 1922.12
515238 2.74822e+06 1921.45
515238 2.74822e+06 1921.4
515241 2.74824e+06 1943.33
515241 2.74824e+06 1941.42
515241 2.74824e+06 1941.51
515241 2.74824e+06 1944.37
515240 2.74824e+06 1944.77
515240 2.74824e+06 1943.02
515240 2.74824e+06 1942.86
515240 2.74824e+06 1943.65
515240 2.74824e+06 1941.3
515240 2.74824e+06 1943.88
515242 2.74825e+06 1945.67
515242 2.74825e+06 1944.89
515242 2.74825e+06 1943.97
515242 2.74825e+06 1944.01
515242 2.74825e+06 1944.32
515241 2.74825e+06 1941.56
515241 2.74825e+06 1944.39
515241 2.74825e+06 1943.19
515241 2.74825e+06 1941.3
515244 2.74828e+06 1915.66
515244 2.74828e+06 1915.84
515244 2.74828e+06 1915.85
515244 2.74828e+06 1915.91
515244 2.74828e+06 1916.06
515244 2.74828e+06 1915.7
515245 2.74829e+06 1916.05
515250 2.74833e+06 1913.87
515250 2.74833e+06 1914.31
515249 2.74833e+06 1915.96
515250 2.74834e+06 1913.61
515250 2.74834e+06 1913.79
515250 2.74834e+06 1913.58
515250 2.74834e+06 1913.64
515250 2.74834e+06 1913.71
515250 2.74834e+06 1913.82
515259 2.74843e+06 1907.96
515259 2.74843e+06 1909.39
515259 2.74843e+06 1908.97
515260 2.74844e+06 1909.49
515260 2.74844e+06 1908.97
515260 2.74844e+06 1908.87
515260 2.74844e+06 1908.88
515260 2.74844e+06 1910.76
515260 2.74844e+06 1909.98
515260 2.74844e+06 1909.81
515260 2.74844e+06 1909.7
515261 2.74845e+06 1909.13
515261 2.74845e+06 1908.96
515261 2.74845e+06 1909.12
515261 2.74845e+06 1909.04
515261 2.74845e+06 1909.32
515261 2.74845e+06 1909.11
515261 2.74845e+06 1908.93
515261 2.74845e+06 1909.01
515260 2.74845e+06 1908.96
515262 2.74846e+06 1909.02
515262 2.74846e+06 1908.76
515262 2.74846e+06 1908.9
515262 2.74846e+06 1908.85
515262 2.74846e+06 1908.93
515262 2.74846e+06 1909.18
515261 2.74846e+06 1909.06
515263 2.74847e+06 1910.09
515263 2.74847e+06 1910.13
515262 2.74847e+06 1909.2
515262 2.74847e+06 1908.74
515263 2.74848e+06 1908.93
515265 2.74849e+06 1909.06
515265 2.74849e+06 1915.14
515265 2.74849e+06 1909.48
515265 2.74849e+06 1915.96
515265 2.74849e+06 1908.9
515266 2.7485e+06 1912.48
515266 2.7485e+06 1913.72
515266 2.7485e+06 1909.43
515266 2.7485e+06 1909.34
515266 2.7485e+06 1909.32
515267 2.74851e+06 1909.21
515267 2.74851e+06 1909.62
515267 2.74851e+06 1909.4
515267 2.74851e+06 1909.2
515267 2.74851e+06 1908.96
515267 2.74851e+06 1908.94
515266 2.74851e+06 1909.43
515266 2.74851e+06 1909.25
515268 2.74852e+06 1909.36
515268 2.74852e+06 1910.08
515268 2.74852e+06 1909.6
515267 2.74852e+06 1909.2
515267 2.74852e+06 1909.3
515267 2.74852e+06 1910.73
515269 2.74853e+06 1910.03
515269 2.74853e+06 1910.42
515269 2.74853e+06 1910.05
515269 2.74853e+06 1909.82
515268 2.74853e+06 1909.73
515268 2.74853e+06 1912.37
515270 2.74854e+06 1911.06
515270 2.74854e+06 1911.03
515270 2.74854e+06 1910.9
515270 2.74854e+06 1910.85
515270 2.74854e+06 1915.81
515270 2.74854e+06 1910.71
515270 2.74854e+06 1910.78
515271 2.74855e+06 1914.87
515271 2.74855e+06 1915.13
515270 2.74855e+06 1910.76
515270 2.74855e+06 1910.8
515270 2.74855e+06 1911.5
515272 2.74856e+06 1910.89
515272 2.74856e+06 1914.19
515272 2.74856e+06 1910.74
515272 2.74856e+06 1911.17
515272 2.74856e+06 1910.98
515272 2.74856e+06 1911.34
515271 2.74856e+06 1911.12
515271 2.74856e+06 1911.03
515272 2.74857e+06 1914.23
515272 2.74857e+06 1911.11
515272 2.74857e+06 1911.18
515274 2.74858e+06 1910.96
515274 2.74858e+06 1911.05
515274 2.74858e+06 1910.46
515274 2.74858e+06 1915.16
515274 2.74858e+06 1910.76
515274 2.74858e+06 1910.67
515275 2.74859e+06 1914.17
515275 2.74859e+06 1910.49
515275 2.74859e+06 1910.6
515275 2.74859e+06 1910.68
515275 2.74859e+06 1910.84
515275 2.74859e+06 1910.76
515276 2.7486e+06 1910.55
515276 2.7486e+06 1910.99
515276 2.7486e+06 1910.64
515275 2.7486e+06 1916.09
515277 2.74861e+06 1911.54
515277 2.74861e+06 1910.85
515276 2.74861e+06 1910.94
515276 2.74861e+06 1910.97
515276 2.74861e+06 1910.53
515278 2.74862e+06 1911.82
515278 2.74862e+06 1912.21
515278 2.74862e+06 1911.71
515278 2.74862e+06 1911.46
515277 2.74862e+06 1911.86
515277 2.74862e+06 1911.92
515277 2.74862e+06 1911.89
515277 2.74862e+06 1911.9
515277 2.74862e+06 1911.4
515277 2.74862e+06 1911.45
515279 2.74863e+06 1911.51
515279 2.74863e+06 1911.64
515279 2.74863e+06 1915.41
515278 2.74863e+06 1911.4
515278 2.74863e+06 1911.66
515278 2.74863e+06 1911.52
515278 2.74863e+06 1911.5
515278 2.74863e+06 1911.57
515278 2.74863e+06 1911.7
515278 2.74863e+06 1915.7
515278 2.74863e+06 1911.34
515278 2.74863e+06 1911.73
515280 2.74864e+06 1910.79
515279 2.74864e+06 1914.33
515279 2.74864e+06 1910.94
515279 2.74864e+06 1911.31
515279 2.74864e+06 1911.23
515279 2.74864e+06 1911.46
515279 2.74864e+06 1911.39
515280 2.74865e+06 1910.67
515280 2.74865e+06 1910.63
515280 2.74865e+06 1910.62
515280 2.74865e+06 1910.82
515280 2.74865e+06 1914.9
515280 2.74865e+06 1911.02
515280 2.74865e+06 1915.06
515280 2.74865e+06 1910.66
515281 2.74866e+06 1915.31
515281 2.74866e+06 1910.62
515281 2.74866e+06 1910.47
515281 2.74866e+06 1910.23
515281 2.74866e+06 1910.39
515281 2.74866e+06 1910.52
515281 2.74866e+06 1910.44
515281 2.74866e+06 1910.64
515281 2.74866e+06 1910.42
515281 2.74866e+06 1910.65
515281 2.74866e+06 1910.54
515282 2.74867e+06 1910.1
515282 2.74867e+06 1910.61
515282 2.74867e+06 1910.04
515282 2.74867e+06 1910.92
515282 2.74867e+06 1910.52
515282 2.74867e+06 1910.57
515282 2.74867e+06 1914.22
515282 2.74867e+06 1910.07
518404 2.74787e+06 1996.17
518404 2.74787e+06 1991.91
518404 2.74787e+06 1992.03
518405 2.74788e+06 1991.67
518405 2.74788e+06 1991.8
518405 2.74788e+06 1991.98
518405 2.74788e+06 1992.31
518405 2.74788e+06 1991.73
518406 2.74789e+06 1991.58
518406 2.74789e+06 1991.7
518406 2.74789e+06 1991.67
518406 2.74789e+06 1991.88
518406 2.74789e+06 1991.92
518406 2.74789e+06 1991.99
518407 2.7479e+06 1990.99
518407 2.7479e+06 1991.47
518407 2.7479e+06 1990.98
518407 2.7479e+06 1991.55
518407 2.7479e+06 1991.68
518407 2.7479e+06 1992.03
518407 2.7479e+06 1991.09
518408 2.74791e+06 1990.44
518408 2.74791e+06 1991.02
518409 2.74792e+06 1990.53
518409 2.74792e+06 1994.67
518409 2.74792e+06 1995.83
518409 2.74792e+06 1994.94
518409 2.74792e+06 1991.29
518409 2.74792e+06 1993.79
518409 2.74792e+06 1990.91
518409 2.74792e+06 1990.09
518410 2.74793e+06 1995.81
518410 2.74793e+06 1990.73
518410 2.74793e+06 1990.18
518410 2.74793e+06 1990.61
518410 2.74794e+06 1989.9
518410 2.74794e+06 1990.28
518412 2.74795e+06 1990.05
518412 2.74795e+06 1990.18
518412 2.74795e+06 1990.06
518412 2.74796e+06 1990.04
518418 2.74801e+06 1991.56
518417 2.74801e+06 1991.28
518417 2.74801e+06 1991.46
518419 2.74802e+06 1990.68
518419 2.74802e+06 1990.72
518418 2.74802e+06 1990.75
518418 2.74802e+06 1991.15
518419 2.74803e+06 1990.08
518419 2.74803e+06 1991.71
518419 2.74803e+06 1990.63
518421 2.74804e+06 1991.27
518421 2.74804e+06 1990.92
518420 2.74804e+06 1992.08
518420 2.74804e+06 1990.46
518420 2.74804e+06 1991.93
518422 2.74805e+06 1989.03
518422 2.74805e+06 1991.16
518421 2.74805e+06 1990.24
518421 2.74805e+06 1991.64
518421 2.74805e+06 1994.76
518421 2.74805e+06 1990.91
518421 2.74805e+06 1990.04
518422 2.74806e+06 1988.93
518422 2.74806e+06 1988.94
518423 2.74807e+06 1989.08
518423 2.74807e+06 1989.31
518423 2.74807e+06 1991.52
518424 2.74808e+06 1989.39
518424 2.74808e+06 1989.37
518424 2.74808e+06 1989.48
518424 2.74808e+06 1990.98
518424 2.74808e+06 1989.26
518424 2.74808e+06 1988.71
518426 2.7481e+06 1990.98
518426 2.7481e+06 1991.44
518426 2.7481e+06 1989.62
518426 2.7481e+06 1990.62
518426 2.7481e+06 1990.15
518426 2.7481e+06 1989.26
518427 2.74811e+06 1988.17
518427 2.74811e+06 1989.04
518427 2.74811e+06 1995.29
518427 2.74811e+06 1988.3
518435 2.74819e+06 2012.58
518435 2.74819e+06 2012.61
518435 2.74819e+06 2012.4
518435 2.74819e+06 2012.72
518435 2.74819e+06 2012.64
518435 2.74819e+06 2012.76
518435 2.74819e+06 2012.7
518434 2.74819e+06 2012.44
518434 2.74819e+06 2015.66
518436 2.7482e+06 2012.43
518436 2.7482e+06 2014.31
518436 2.7482e+06 2012.67
518436 2.7482e+06 2012.75
518435 2.7482e+06 2012.23
518438 2.74822e+06 1988.79
518438 2.74822e+06 1988.7
518438 2.74822e+06 1988.93
518438 2.74822e+06 1993.04
518438 2.74822e+06 1988.81
518438 2.74822e+06 1988.85
518438 2.74822e+06 1993.21
518437 2.74822e+06 1989.11
518439 2.74823e+06 1988.96
518439 2.74823e+06 1988.93
518439 2.74823e+06 1988.95
518439 2.74823e+06 1989.02
518439 2.74823e+06 1988.99
518439 2.74823e+06 1988.9
518439 2.74823e+06 1989.13
